# .PCD v0.7 - Point Cloud Data file format
VERSION 0.7
FIELDS x y z
SIZE 4 4 4
TYPE F F F
COUNT 1 1 1
WIDTH 1467
HEIGHT 1
VIEWPOINT 0 0 0 1 0 0 0
POINTS 1467
DATA ascii
-0.034153182 0.17408144 1.4740001
-0.025810821 0.17550515 1.472
-0.012124826 0.17620702 1.4714
-0.0051574847 0.17531653 1.4704374
0.0047865999 0.17581554 1.47
0.0966525 0.1791293 1.47
0.1146943 0.1713971 1.47
-0.024601895 0.18479168 1.4770001
-0.014713271 0.18257073 1.4728
-0.0053634467 0.18355823 1.4760001
0.0051603233 0.18454981 1.4721001
0.015607591 0.18657511 1.4700001
0.026326299 0.1883343 1.4700001
0.036083598 0.18943889 1.47
0.043815799 0.18943889 1.47
0.072167203 0.18943889 1.47
0.0966525 0.1817067 1.47
0.0090638567 0.1942255 1.4770001
0.015308936 0.19471949 1.4758334
0.024780883 0.19585685 1.4746667
0.03490945 0.19262588 1.4746667
0.044714205 0.19489443 1.4742001
0.052407131 0.19631195 1.4700001
0.065509602 0.19451459 1.4715557
0.074501023 0.19632329 1.471077
0.081188098 0.1945937 1.47
0.01942255 0.20069969 1.4770001
0.024549734 0.20151278 1.4735
0.07380569 0.20069969 1.4770001
0.23791769 -0.11050822 1.483
0.23661759 -0.10790803 1.483
0.25351885 -0.10140754 1.483
0.27558246 -0.10695527 1.4842001
0.28370643 -0.10671706 1.4844999
-0.078060329 0.11669888 1.4890001
-0.064615153 0.1174821 1.4890001
-0.050908908 0.11878745 1.4890001
-0.035244629 0.11878745 1.4890001
-0.025128115 0.11650307 1.4890002
-0.016643297 0.11650308 1.4890002
0.0013053566 0.11878745 1.4890001
0.048298195 0.11878745 1.4890001
0.055695217 0.11791722 1.4890002
0.065412864 0.11704698 1.4890002
0.075710684 0.11748209 1.4890002
0.084848188 0.1174821 1.4890002
0.094420798 0.11704698 1.4890002
0.10478453 0.11641407 1.4890002
0.1148315 0.11613685 1.4885001
0.12262199 0.11609697 1.488
-0.084521845 0.12694594 1.4890002
-0.075710684 0.12531424 1.4890002
-0.065236926 0.12524979 1.4882503
-0.054743446 0.12512028 1.4867501
-0.044313744 0.12512028 1.4867501
-0.034161769 0.12491501 1.4874002
-0.025141116 0.12529907 1.4853077
-0.015622856 0.12499731 1.48525
-0.0054824976 0.1255753 1.4890002
0.0052161664 0.12518404 1.4875001
0.015648499 0.12518406 1.4875001
0.02549275 0.12628758 1.4879093
0.034228776 0.12557541 1.4885386
0.043971218 0.12576208 1.4877144
0.054444678 0.12478035 1.4858
0.065070145 0.12363147 1.4844999
0.076018743 0.1231359 1.4848001
0.08487273 0.12259525 1.48375
0.095427088 0.12194906 1.483
0.10400773 0.12220908 1.4829999
0.11385132 0.12202335 1.4829999
0.12596576 0.1238345 1.4840909
0.13538198 0.12496345 1.484875
0.14398487 0.12684527 1.4872857
0.15011601 0.12923031 1.4890001
-0.090591744 0.13497387 1.4890001
-0.084848188 0.1357571 1.4890002
-0.075710684 0.1357571 1.4890002
-0.065072551 0.13534354 1.4844999
-0.054975513 0.13465287 1.4829999
-0.043831829 0.13465287 1.4829999
-0.03510261 0.13358493 1.4829999
-0.026146388 0.13304323 1.4829999
-0.015255195 0.1340075 1.4840908
-0.005208605 0.13537738 1.484875
0.0052003865 0.13260986 1.4829999
0.013434332 0.1321765 1.4830002
0.025444748 0.13242413 1.4829999
0.034452561 0.13195981 1.483
0.044203285 0.13130976 1.483
0.050703771 0.13130976 1.483
0.1358601 0.13293488 1.4829999
0.14570989 0.13226503 1.4840001
-0.090069607 0.14619994 1.4890001
-0.084848188 0.1448946 1.4890002
-0.07548137 0.1455541 1.488143
-0.065004833 0.14561082 1.4829999
-0.054975513 0.14505364 1.4829999
-0.048103575 0.14431073 1.4830002
-0.01170087 0.14171053 1.483
-0.090069607 0.15011601 1.4890001
-0.083729312 0.15272672 1.4890002
-0.075835168 0.15445738 1.4877145
-0.064744808 0.15575157 1.4829999
-0.055667773 0.15683892 1.4829999
-0.074405327 0.16364425 1.4890002
-0.065529414 0.1652775 1.4880772
-0.054887749 0.16544014 1.4835999
-0.048103575 0.16771246 1.483
-0.069183901 0.17100172 1.4890001
-0.05414531 0.17172384 1.4855715
-0.043268405 0.17359683 1.4866
-0.037702803 0.17681314 1.483
-0.040466055 0.18274993 1.4890001
-0.034115128 0.18413559 1.4854
-0.029252175 0.18461372 1.483
-0.0039108098 0.18824531 1.4860001
0.0013000966 0.18851401 1.483
-0.0026107132 0.19188742 1.4890001
0.0039020434 0.1926738 1.485
0.01170087 0.1911142 1.483
0.029902223 0.1976147 1.483
0.03510261 0.19761468 1.4829999
0.040302996 0.1976147 1.483
0.029902223 0.20151499 1.483
0.03510261 0.20216504 1.483
0.041278433 0.20292874 1.4870001
0.27803659 -0.11147694 1.4960001
0.28459406 -0.11147694 1.4959999
0.15869069 0.094427519 1.4960001
0.16306233 0.094864689 1.4959999
0.1744286 0.094614871 1.4960002
-0.02754136 0.10885394 1.4960001
-0.017049413 0.10885394 1.4960001
0.097050503 0.10885394 1.4960001
0.10491946 0.10885394 1.4960001
0.11628574 0.10797962 1.4960002
0.12196888 0.10754246 1.4960001
-0.091367364 0.11847156 1.4959999
-0.083935574 0.1161983 1.4960002
-0.074099369 0.11541142 1.4960002
-0.065693885 0.11481528 1.4960002
-0.054558121 0.11646061 1.4960002
-0.044590775 0.11597349 1.4960002
-0.03401139 0.11514913 1.4960002
-0.024262628 0.11213268 1.4960001
-0.015175851 0.11409992 1.4960002
-0.0052459729 0.1167229 1.4960002
0.0056036529 0.11648445 1.4960002
0.015300754 0.11759724 1.4960002
0.024918372 0.11803439 1.4960002
0.034098826 0.11803439 1.4960002
0.044028703 0.11784703 1.4960002
0.054820418 0.11514912 1.4960001
0.066011831 0.11278843 1.4960002
0.074755125 0.11278843 1.4960002
0.083935574 0.11278843 1.4960002
0.093865454 0.11260106 1.4960002
0.10413257 0.11200152 1.4960001
0.11541142 0.11147694 1.4960001
0.12721485 0.11497425 1.4960002
0.13508382 0.1167229 1.4960002
0.14120412 0.11847156 1.4959999
-0.092877574 0.12626104 1.4960002
-0.085902818 0.12262462 1.4960001
-0.0013114933 0.12196888 1.4960001
0.02360688 0.12196888 1.4960001
0.034098826 0.12196888 1.4960001
0.047213759 0.12196888 1.4960001
0.1462315 0.12393612 1.4960001
0.15315327 0.12517476 1.4960002
-0.094689816 0.1356084 1.4960001
-0.10229648 0.14032979 1.4960001
-0.094281793 0.14324422 1.4960002
-0.091804534 0.15213323 1.4960001
-0.086820863 0.15659229 1.4960001
-0.081749745 0.16437384 1.4960002
-0.077378109 0.16787115 1.4960001
-0.064263172 0.17180562 1.4960001
-0.05114824 0.1770516 1.4960001
-0.045902267 0.1783631 1.4960001
-0.043279279 0.18229757 1.4960001
-0.0013114933 0.1954125 1.4960001
0.28706712 -0.12038299 1.5090002
0.2923587 -0.12038299 1.5090001
0.28517276 -0.1157632 1.5030001
0.29251385 -0.11595144 1.503
-0.074081838 0.099216752 1.5090001
-0.064821608 0.099216752 1.5090002
-0.05688427 0.099216752 1.5090002
-0.048946928 0.099216752 1.5090001
-0.03439514 0.099216752 1.5090001
-0.025134912 0.099216752 1.5090002
-0.019843349 0.099216752 1.5090001
0.16483104 0.098374091 1.5042
0.17306538 0.099085249 1.507
-0.12126491 0.10891794 1.5090002
-0.11509143 0.10874156 1.5090001
-0.10494927 0.10671312 1.5089999
-0.095248073 0.1058312 1.5090002
-0.084644899 0.10580391 1.5086253
-0.074520297 0.10526838 1.5064287
-0.06535437 0.10584473 1.5038574
-0.055491358 0.10569543 1.5071253
-0.044899687 0.10564218 1.5063752
-0.034326758 0.10561554 1.5060002
-0.024831407 0.10486601 1.5065999
-0.015847629 0.10508015 1.5064287
-0.0052856426 0.10831326 1.50675
0.0047216015 0.10854121 1.5072857
0.01587468 0.10979987 1.5090001
0.0264578 0.10979987 1.5090001
0.034395143 0.10979987 1.5090001
0.04224569 0.10958157 1.506
0.05512042 0.10979987 1.5090002
0.066299669 0.10909607 1.5066
0.073929295 0.10892013 1.506
0.085039549 0.10841648 1.5055715
0.094956152 0.1059964 1.5062729
0.10520322 0.10520087 1.5063334
0.1152064 0.10464583 1.5055715
0.1253875 0.10464431 1.5055715
0.13425887 0.10784315 1.5063335
0.14287212 0.10979987 1.5090001
0.15568373 0.10862864 1.505
0.16485387 0.10586985 1.508077
0.17459255 0.10247444 1.5050001
0.1805153 0.10145751 1.503
-0.12038299 0.11509144 1.5090002
-0.11509143 0.11509144 1.5089999
-0.10546361 0.11542564 1.508077
-0.095755272 0.11544991 1.5057693
-0.086304769 0.11265737 1.503
-0.055779669 0.11287697 1.5029999
-0.04348179 0.11199855 1.503
-0.0052705198 0.11199855 1.503
0.0052705202 0.11199855 1.503
0.016714526 0.113026 1.505
0.025084941 0.11353973 1.506
0.034326758 0.11353973 1.506
0.044819802 0.11337207 1.5037501
0.05459512 0.11261503 1.5042
0.062175829 0.11244565 1.5090001
0.13571589 0.11199855 1.5029999
0.14643419 0.11476898 1.5048001
0.15466121 0.1163251 1.5039233
0.16271546 0.11442999 1.5089999
-0.12038299 0.12435167 1.5090001
-0.11509142 0.12435164 1.5089999
-0.10595936 0.12444897 1.5070002
-0.098163426 0.12451603 1.503
0.15943323 0.12517485 1.503
0.16338174 0.12110186 1.507
-0.12104443 0.13427332 1.5090001
-0.11509144 0.13493477 1.5089999
-0.10562605 0.13466653 1.5060002
-0.098822251 0.13439825 1.503
-0.11476071 0.14386429 1.5089999
-0.10609119 0.14592104 1.507286
-0.098163441 0.14691575 1.503
-0.10413035 0.15402219 1.5089999
-0.095628902 0.15558818 1.5066
-0.095512658 0.16430292 1.5090002
-0.086072758 0.16630505 1.5038573
-0.094807118 0.17065281 1.5090002
-0.087751709 0.17153473 1.5090002
0.28706974 -0.13157363 1.516
0.29105684 -0.13157363 1.516
0.28839877 -0.12891559 1.516
0.29318327 -0.12572592 1.516
-0.095689923 0.089044787 1.516
-0.083728679 0.089044787 1.5160002
-0.15018001 0.099676996 1.516
-0.13290265 0.098347977 1.516
-0.12473865 0.09853784 1.5159999
-0.11349888 0.09914539 1.516
-0.1049931 0.09701895 1.5159999
-0.095689923 0.095689923 1.5160002
-0.085057706 0.097018935 1.5159999
-0.074425489 0.095689923 1.5159999
-0.065122306 0.095689923 1.5159999
-0.055376112 0.096132927 1.5159999
-0.044824447 0.096777312 1.5159999
-0.034407023 0.095246918 1.5159999
-0.025251508 0.095689923 1.5159999
-0.01594832 0.09768346 1.5159999
0.095689923 0.099676996 1.516
0.1049931 0.098347984 1.5159999
0.11509371 0.09914539 1.516
0.12359948 0.098347969 1.5159999
-0.15018001 0.1049931 1.516
-0.14752196 0.10233505 1.516
-0.1342317 0.1049931 1.5159999
-0.12529097 0.10475146 1.5159999
-0.11444397 0.10410708 1.5159999
-0.10765116 0.10366408 1.516
-0.0055059674 0.10385393 1.5159999
0.0063128765 0.10432859 1.5159999
0.01594832 0.1049931 1.5159999
0.025251508 0.10632213 1.5159999
0.033985112 0.106512 1.5159999
0.045186907 0.10765116 1.516
0.05648363 0.10698664 1.516
0.064236291 0.10543612 1.5159999
0.074995078 0.10613228 1.5159999
0.085057706 0.10432859 1.5159999
0.094360895 0.10233506 1.5160002
0.10632213 0.10233505 1.516
0.11385328 0.10233506 1.5160002
0.12359948 0.10233505 1.516
0.13688974 0.1049931 1.5160002
0.14419939 0.10698664 1.516
0.1541671 0.1049931 1.5159999
0.16081223 0.10366408 1.516
0.17233045 0.10410708 1.5160002
-0.13263686 0.11243565 1.516
-0.12649918 0.11465877 1.5159999
0.022593454 0.11030921 1.516
0.047844961 0.11030921 1.516
0.057148147 0.11030921 1.516
0.14752196 0.11030921 1.516
0.15018001 0.11030921 1.516
0.16745737 0.11695435 1.516
-0.12625754 0.1249285 1.5159999
-0.13210525 0.13476329 1.516
-0.12603603 0.13578223 1.5159999
-0.13245966 0.14397788 1.5160002
-0.1249285 0.14486389 1.5159999
-0.11828338 0.14752196 1.516
-0.12227045 0.15018001 1.516
-0.11429629 0.15416709 1.516
-0.10632213 0.15815417 1.516
-0.11163824 0.16081223 1.516
-0.10475147 0.16443685 1.5159999
-0.10233505 0.17144445 1.516
-0.094360895 0.17321646 1.5160002
0.28812826 -0.12630644 1.5230001
0.2950711 -0.12684052 1.5230001
-0.13404232 0.079084978 1.529
-0.081765823 0.079084978 1.529
-0.15347847 0.086457297 1.5290002
-0.1449431 0.086874746 1.5285001
-0.13435192 0.085231654 1.5259999
-0.12561198 0.086455457 1.5280769
-0.11531154 0.086660862 1.528077
-0.1042925 0.085962497 1.5266925
-0.094963744 0.084259063 1.5256667
-0.085618772 0.084945939 1.5260001
-0.075754113 0.086937197 1.5257274
-0.064274564 0.088379838 1.5275
-0.054568335 0.087374523 1.5275
-0.045385715 0.087942809 1.5276667
-0.034803666 0.088797271 1.5270001
-0.024909783 0.089201711 1.5278
0.11795725 0.08980836 1.529
0.12465937 0.088467933 1.5290002
0.13404234 0.08980836 1.529
0.1434253 0.08980836 1.529
0.15504231 0.088914752 1.5289999
-0.17023376 0.095170058 1.529
-0.16487208 0.095170066 1.5290002
-0.1552397 0.095013566 1.5264999
-0.14434098 0.094889961 1.5245
-0.13523297 0.094033644 1.523
-0.12570688 0.093946815 1.5236667
-0.11523075 0.094586842 1.5235455
-0.1054779 0.092126273 1.5230001
-0.085450456 0.092126273 1.5230001
-0.074769147 0.092126273 1.5230001
-0.064087838 0.092126273 1.5230001
-0.054741696 0.092126273 1.5230001
-0.045395553 0.092126273 1.5230001
-0.035159301 0.092126273 1.5230001
-0.024032939 0.092126273 1.5230001
-0.014715726 0.093642913 1.526
-0.0080425404 0.097850904 1.529
0.0067021172 0.097850896 1.5289999
0.014713096 0.0969887 1.526
0.021446772 0.097850904 1.529
0.064340323 0.097850904 1.529
0.075063705 0.097850904 1.529
0.085787095 0.097850904 1.529
0.094924591 0.097594917 1.5250001
0.10511005 0.094943874 1.5254002
0.11458183 0.094652824 1.5246364
0.12493314 0.094033651 1.523
0.13426302 0.094821624 1.5273637
0.14471795 0.095138073 1.5285001
0.15518139 0.094980694 1.526
-0.17023376 0.10455301 1.529
-0.164766 0.10448289 1.528
-0.15618525 0.10449792 1.5266925
-0.14415856 0.10439727 1.5254002
-0.13752182 0.10013725 1.5230001
-0.0050736209 0.10067131 1.5230001
0.0045395554 0.10067131 1.5230001
0.014686797 0.10013726 1.5230001
0.024620933 0.10133804 1.5238572
0.034782626 0.10233856 1.5260001
0.045483399 0.10354204 1.5260003
0.055073429 0.10345999 1.5248001
0.064312391 0.10133804 1.5238572
0.074769139 0.10147241 1.523
0.084649354 0.10067131 1.5230001
0.096131757 0.10013725 1.5230001
0.12951085 0.10147241 1.5230001
0.1348515 0.10147241 1.5230001
0.1447317 0.10227351 1.523
0.15398882 0.10102735 1.5230001
-0.17023376 0.11125514 1.529
-0.16427226 0.11469658 1.5284002
-0.155186 0.11505482 1.526
-0.14465626 0.11519257 1.5278749
-0.13607332 0.11622608 1.5238572
-0.16308485 0.12287214 1.5289999
-0.1554891 0.12465937 1.5290002
-0.14476572 0.12398915 1.5290002
-0.13475651 0.12527463 1.5246364
-0.15280825 0.13136148 1.529
-0.1434253 0.13308488 1.5290002
-0.13681231 0.13458003 1.5250001
-0.14074445 0.1434253 1.5289999
-0.13569185 0.14408579 1.5238572
-0.12456381 0.1542896 1.5237501
-0.11882953 0.15888444 1.5230001
-0.11438409 0.16440845 1.5247144
-0.10814823 0.16956574 1.5230001
-0.16024064 0.07810048 1.536
-0.1548544 0.075774603 1.5360001
-0.14527887 0.07735239 1.5360001
-0.134656 0.075407356 1.5360001
-0.12612778 0.07765162 1.5360001
-0.11522706 0.078292847 1.5360001
-0.10503169 0.076753922 1.5360001
-0.094626434 0.07699874 1.5360001
-0.085371897 0.077831164 1.536
-0.079447038 0.07810048 1.536
-0.17370623 0.08617983 1.5360001
-0.1641307 0.085132509 1.5360001
-0.15687424 0.08416 1.536
-0.1447552 0.082813442 1.536
-0.12253696 0.082140163 1.536
-0.11535531 0.082140163 1.5359999
-0.1077248 0.082140163 1.536
-0.09021952 0.082140163 1.536
-0.073522173 0.083217405 1.536
-0.065211974 0.08367908 1.5360001
-0.057004374 0.083037868 1.5359999
-0.046052355 0.08375603 1.536
-0.035587657 0.085218005 1.5360001
-0.023660984 0.085987464 1.5360001
-0.01481216 0.08617983 1.5360001
0.11894614 0.086628698 1.5359999
0.12523007 0.084833287 1.5359999
0.134656 0.087526396 1.536
0.14542848 0.087526396 1.536
0.15350784 0.086179838 1.536
-0.18313216 0.095605761 1.5360001
-0.17532212 0.094169453 1.5359999
-0.16428033 0.09021952 1.536
-0.15754752 0.09021952 1.536
-0.01481216 0.09021952 1.5359999
-0.0044885329 0.096503466 1.5360001
0.0053862403 0.095605761 1.5360001
0.01481216 0.095605761 1.536
0.02423808 0.096952319 1.536
0.032317437 0.098298877 1.536
0.049822718 0.098298877 1.536
0.055208962 0.098298877 1.5359999
0.068674557 0.095605761 1.536
0.075407356 0.095605761 1.536
0.084833287 0.095605761 1.5359999
0.094259202 0.095605761 1.536
0.105301 0.092374012 1.536
0.11311103 0.09021952 1.536
0.14587733 0.09021952 1.5359999
0.15216129 0.09021952 1.536
-0.1826833 0.10413397 1.5360001
-0.17639937 0.10503168 1.5360001
0.03905024 0.100992 1.536
0.045783043 0.100992 1.536
-0.1817856 0.11176448 1.536
-0.17437953 0.11580416 1.5360001
-0.16832 0.11849728 1.536
-0.17209037 0.12469145 1.536
-0.16652459 0.12612778 1.5360001
-0.14542848 0.12657663 1.536
-0.16254902 0.13253997 1.5360001
-0.15552768 0.13600256 1.5360001
-0.14647581 0.13540408 1.5360001
-0.15350784 0.1413888 1.536
-0.14569779 0.14300469 1.536
-0.12253696 0.16293375 1.536
-0.1618727 0.067183934 1.5430001
-0.1547485 0.066823222 1.5430001
-0.14203314 0.068987526 1.5430001
-0.13526967 0.068987526 1.5430001
-0.12580079 0.068987526 1.5430001
-0.1025344 0.066823222 1.5430001
-0.096582547 0.067905366 1.5430001
-0.086572587 0.068987526 1.5430001
-0.18464309 0.079132751 1.5430001
-0.17449789 0.078456402 1.5430001
-0.16490601 0.076119937 1.5430001
-0.15285473 0.071692921 1.5430001
-0.14564034 0.073496513 1.5430001
-0.13526967 0.071692921 1.5430001
-0.123396 0.073797122 1.5430001
-0.11497921 0.073045619 1.5430001
-0.10551034 0.071692921 1.5430001
-0.093877152 0.072233997 1.5430001
-0.08521989 0.073045619 1.5430001
-0.07541284 0.077441886 1.5430001
-0.06477914 0.078005515 1.5430001
-0.054107871 0.078456409 1.5430001
-0.045180071 0.07872694 1.5430001
-0.035981733 0.079268023 1.5430001
-0.02434854 0.079809099 1.5430001
-0.014879663 0.079809099 1.5430001
-0.19181238 0.085760966 1.5430001
-0.18531945 0.08521989 1.5430001
-0.17720325 0.083867192 1.5430001
-0.16773438 0.082514495 1.5430001
-0.060871348 0.082514495 1.5430001
-0.051402472 0.082514495 1.5430001
-0.041933596 0.082514495 1.5430001
-0.033817418 0.082514495 1.5430001
-0.024348538 0.082514495 1.5430001
-0.014879663 0.082514495 1.5430001
-0.0067634829 0.087925285 1.5430001
0.10821573 0.087925285 1.5430001
0.11497921 0.086572587 1.5430001
0.12444809 0.082514495 1.5430001
0.13526967 0.084318094 1.5430001
0.14527962 0.08413773 1.5430001
0.15150203 0.083867192 1.5430001
-0.19368158 0.094565779 1.5430001
-0.18667214 0.093336068 1.5430001
-0.0054107867 0.091983363 1.5430001
0.0048310598 0.091790125 1.5430001
0.014203315 0.092659719 1.5430001
0.027053934 0.096041463 1.5430001
0.035170116 0.097394161 1.5430001
0.044638991 0.098746859 1.5430001
0.064929441 0.094012409 1.5430001
0.076652803 0.092434265 1.5430001
0.08521989 0.09198337 1.5430001
0.094688758 0.091983363 1.5430001
0.10235405 0.091532469 1.5430001
-0.19208293 0.10551033 1.5430001
-0.18712305 0.10641214 1.5430001
-0.19614102 0.11362652 1.5430001
-0.18464309 0.11430287 1.5430001
-0.17990865 0.11633191 1.5430001
-0.18261404 0.1217427 1.5430001
-0.17720327 0.12444809 1.5430001
-0.16908708 0.13121158 1.5430001
-0.15014933 0.14473854 1.5430001
-0.14744394 0.14473854 1.5430001
0.4687975 -0.40357348 1.5500001
-0.16243143 0.04777395 1.557
-0.19519071 0.058011226 1.557
-0.18518092 0.055053789 1.557
-0.1743439 0.055963766 1.557
-0.16484569 0.054947075 1.5563637
-0.15564969 0.054854203 1.5565332
-0.14878173 0.058693711 1.557
-0.13513203 0.057328742 1.557
-0.1274882 0.057601731 1.557
-0.098277837 0.058693711 1.557
-0.20362869 0.066635348 1.557
-0.19543888 0.06564264 1.557
-0.18645492 0.067156523 1.557
-0.17530116 0.065128572 1.5569999
-0.16603731 0.065150686 1.5512729
-0.15434782 0.062191468 1.5535001
-0.14503893 0.0649122 1.5535001
-0.13543254 0.064306304 1.5542001
-0.12525959 0.065122843 1.5541998
-0.11429156 0.065627918 1.5532665
-0.10613415 0.064065926 1.5550001
-0.094409823 0.063965589 1.5525455
-0.084914029 0.066140503 1.5538889
-0.075073346 0.068521485 1.557
-0.065973543 0.068703495 1.557
-0.054598797 0.06870348 1.557
-0.045044009 0.069613472 1.557
-0.036854193 0.069613472 1.557
-0.21339029 0.075983323 1.557
-0.20474549 0.075073354 1.557
-0.19519071 0.075073354 1.557
-0.18568248 0.074793376 1.5563637
-0.17652185 0.074536957 1.554
-0.16894828 0.072924055 1.5500001
-0.080171168 0.072018169 1.5500001
-0.0741923 0.073105238 1.5500001
-0.065418117 0.073182881 1.5500001
-0.054383248 0.073417649 1.5508751
-0.044540048 0.074098751 1.5530001
-0.035003148 0.074577473 1.5519092
-0.024890957 0.075163648 1.5538182
-0.015520157 0.076501437 1.5528001
0.10783263 0.077803291 1.557
0.11602245 0.077803291 1.557
0.12629494 0.076776713 1.5546666
0.13513203 0.077803291 1.557
0.14468682 0.077803291 1.557
0.15287341 0.076660119 1.5523334
-0.2143003 0.083759524 1.557
-0.2054082 0.084193245 1.554846
-0.19693704 0.08377777 1.5514001
-0.0054450496 0.083721161 1.5529166
0.005073668 0.085990794 1.5525455
0.014958418 0.087031819 1.5511667
0.02183952 0.088723049 1.557
0.036854193 0.088723049 1.557
0.074956752 0.088590086 1.5546666
0.084914036 0.086725816 1.5538889
0.095331073 0.085795708 1.5535001
0.10463861 0.084079027 1.5538182
0.11364816 0.082381509 1.5507001
0.12501267 0.080171168 1.5500001
0.13588333 0.081077062 1.5500001
0.14471576 0.080850586 1.5500001
0.15218933 0.080171168 1.5500001
-0.21508028 0.095742881 1.5569999
-0.20534031 0.095188908 1.5511667
-0.1981179 0.095390104 1.5500001
0.016306 0.091041833 1.5500001
0.024489684 0.092503451 1.5517501
0.035937019 0.093380414 1.5528001
0.044932868 0.093943581 1.5531112
0.054006755 0.094852217 1.5531112
0.063961305 0.091178887 1.5523334
0.073376998 0.091041833 1.5500001
-0.21290857 0.10395849 1.5535001
-0.20518382 0.10463016 1.5500001
-0.19737053 0.10496987 1.5500001
-0.20337205 0.11097138 1.5500001
-0.19547825 0.11435187 1.5528001
-0.187519 0.11685966 1.5500001
-0.19246078 0.1228473 1.557
-0.18582046 0.12399354 1.5500001
-0.19528475 0.046813495 1.5640001
-0.18455096 0.046891846 1.5640001
-0.17550164 0.046617627 1.5640001
-0.16508123 0.045246519 1.5640001
-0.15454331 0.046030007 1.5640001
-0.21389264 0.05758648 1.5640001
-0.20527425 0.05543188 1.564
-0.19457249 0.053223863 1.5640002
-0.18537363 0.055118483 1.5640001
-0.17632431 0.051827837 1.5640001
-0.16864611 0.050730947 1.5640001
-0.15493505 0.050730947 1.5640001
-0.1453373 0.055529818 1.5640001
-0.13495608 0.052297924 1.5640001
-0.12385664 0.055301297 1.5640001
-0.1143503 0.058409143 1.5640001
-0.10479172 0.057390604 1.5640001
-0.094057918 0.057312258 1.5640001
-0.08912193 0.05758648 1.5640001
-0.22463298 0.066955708 1.5640001
-0.21526377 0.065813117 1.5640001
-0.20813398 0.063345127 1.5640001
-0.19332604 0.064442016 1.5640001
-0.18509941 0.063070916 1.5640001
-0.14670841 0.0616998 1.5640001
-0.11654407 0.0616998 1.5640001
-0.083637506 0.063070908 1.5640001
-0.075867899 0.063984983 1.5640001
-0.065538898 0.063893571 1.5640001
-0.05511849 0.064442016 1.5640001
-0.045246515 0.065813117 1.5640001
-0.036105808 0.066727184 1.5640001
-0.026051028 0.069926441 1.5640001
-0.2248615 0.075410865 1.5640001
-0.21709187 0.073582716 1.5640001
-0.020566599 0.072668649 1.5640001
-0.015082174 0.073582716 1.5640001
-0.0095977467 0.078153081 1.5640001
0.097348571 0.078153081 1.5640001
0.102833 0.078153081 1.5640001
0.11517296 0.076096423 1.5640001
0.12477071 0.074496798 1.5640001
0.13436845 0.074725315 1.5640001
0.14625138 0.074496798 1.5640001
0.15219285 0.075410865 1.5640001
-0.2234904 0.085008606 1.5640001
-0.21800596 0.087750822 1.5640001
-0.0013711067 0.08089529 1.5640001
0.005027391 0.081809364 1.5640001
0.013711067 0.083637506 1.5640001
0.02559399 0.087293796 1.5640001
0.035191737 0.087293781 1.5640001
0.045246523 0.08912193 1.5640001
0.067184232 0.08912193 1.5640001
0.076781973 0.086379722 1.5640001
0.084551573 0.082723431 1.5640001
0.09597747 0.08089529 1.5640001
0.10009079 0.08089529 1.5640001
-0.22239351 0.094606355 1.5640001
0.056215376 0.091864146 1.5640001
0.46610025 -0.46254775 1.5749999
0.47756854 -0.41389275 1.5790001
-0.20486999 0.037374929 1.5790001
-0.19518019 0.037374929 1.5790001
-0.18415946 0.038670205 1.5755
-0.17467557 0.038485166 1.5760001
-0.16509674 0.038855247 1.575
-0.15572974 0.037633546 1.5755
-0.23255512 0.048448984 1.5790001
-0.22369587 0.045403615 1.5790002
-0.21447164 0.044502836 1.575231
-0.20533691 0.043865837 1.575231
-0.19498393 0.042099394 1.574625
-0.18618631 0.042751383 1.5731667
-0.17502123 0.042721719 1.572
-0.16124004 0.042721719 1.572
-0.15273492 0.043701831 1.5743333
-0.14523719 0.045001574 1.5748001
-0.13578242 0.046485346 1.5751112
-0.12582467 0.047703162 1.57725
-0.10797202 0.048448984 1.5790001
-0.092745192 0.048448984 1.5790001
-0.24362917 0.058138777 1.5790001
-0.23463355 0.056075986 1.5779233
-0.22505136 0.055221453 1.574917
-0.21636485 0.053440429 1.572
-0.20809612 0.05099044 1.572
-0.1447026 0.050990444 1.572
-0.13092139 0.05099044 1.572
-0.12416427 0.051047206 1.57375
-0.11596704 0.053838722 1.5748001
-0.10485064 0.052425321 1.5737501
-0.095301993 0.052482083 1.5755
-0.085205942 0.055837132 1.5745456
-0.075937748 0.057793755 1.575
-0.064333305 0.058257304 1.5748
-0.056148045 0.058916558 1.5776
-0.045680474 0.059523035 1.5790001
-0.24224491 0.062291551 1.5790001
-0.23480752 0.064363375 1.5755001
-0.22325544 0.062015399 1.572
-0.08130908 0.062015399 1.572
-0.073040359 0.062015399 1.572
-0.05484917 0.063669145 1.572
-0.045477957 0.062015399 1.572
-0.035420839 0.063946992 1.5743333
-0.02579855 0.066805512 1.5766668
0.12541366 0.067274868 1.5790001
0.13471 0.067214727 1.5776
0.14603907 0.067136444 1.5790001
0.15296036 0.067136452 1.5790001
-0.23573935 0.074063614 1.5762001
-0.0206718 0.070284121 1.572
-0.015181822 0.07130719 1.5743333
-0.005676514 0.076250128 1.5751112
0.0063675805 0.078348927 1.5790001
0.015226824 0.076925121 1.5790002
0.024916619 0.076687813 1.5790002
0.034052711 0.077795222 1.5790001
0.0415277 0.078902632 1.5790001
0.086574689 0.078278974 1.5776001
0.095453218 0.076084144 1.5780002
0.10479127 0.075022407 1.5751112
0.11610448 0.072737791 1.574
0.12485766 0.07138662 1.572
0.13581996 0.071554787 1.574
0.14427778 0.071449213 1.5734
0.15314467 0.071051426 1.57375
-0.23348278 0.084878124 1.5743335
-0.2273898 0.089577802 1.572
0.0082687205 0.08130908 1.572
0.01584838 0.08199814 1.572
0.024806159 0.082687199 1.572
0.035264168 0.082935795 1.573
0.045046985 0.084009379 1.5762002
0.055481669 0.086275578 1.5765003
0.06454096 0.086249724 1.5760002
0.074584171 0.084249415 1.5755001
0.084754378 0.08199814 1.572
0.09233404 0.08130908 1.572
-0.23174798 0.093530983 1.5766667
-0.2273898 0.093712159 1.572
0.44631627 -0.49080884 1.5860001
0.45465863 -0.48385689 1.5860001
0.46578178 -0.47134334 1.5860001
0.46350658 -0.46350652 1.5860003
0.47134334 -0.46022019 1.5860001
0.46361896 -0.45527655 1.5860002
0.47134334 -0.45743939 1.5860001
0.46856254 -0.42406997 1.5860001
0.47551453 -0.42267954 1.5860002
0.47634873 -0.41739607 1.5860001
-0.22385332 0.029198259 1.5860001
-0.19326468 0.029198259 1.5860001
-0.23386416 0.03587215 1.5860001
-0.22524373 0.034759834 1.5860003
-0.21551096 0.03510743 1.5860002
-0.2057782 0.034203675 1.5860002
-0.19465506 0.033369444 1.5860002
-0.18584925 0.034296367 1.5860001
-0.17518955 0.034759834 1.5860001
-0.1640664 0.034759834 1.5860001
-0.15655829 0.033647519 1.5860001
-0.14877209 0.037540618 1.5860001
-0.25351503 0.046809908 1.5860001
-0.245244 0.045241255 1.5860003
-0.23525456 0.04365835 1.5860002
-0.22719026 0.041433722 1.5860001
-0.14321052 0.040321406 1.5860001
-0.13556334 0.042406995 1.5860001
-0.12467194 0.043720145 1.5860002
-0.11540265 0.047551453 1.5860001
-0.10474297 0.046809908 1.5860001
-0.09593714 0.047551453 1.5860001
-0.079252422 0.048663765 1.5860001
-0.26000354 0.055615734 1.5860001
-0.25418919 0.055236533 1.5860003
-0.24609961 0.053916365 1.5860002
-0.23775727 0.052834947 1.5860001
-0.0834236 0.051444553 1.5860001
-0.074154317 0.0546888 1.5860001
-0.068129271 0.057006128 1.5860001
-0.05422534 0.057006132 1.5860001
-0.044492587 0.057701327 1.5860001
-0.036150225 0.059786912 1.5860001
0.1459913 0.059786912 1.5860001
0.15711445 0.059786912 1.5860001
-0.26000354 0.062567696 1.5860001
-0.25166118 0.062567696 1.5860001
-0.24490786 0.065745734 1.5860002
-0.031979047 0.062567696 1.5860001
-0.02502708 0.063958094 1.5860001
-0.018075114 0.068129271 1.5860001
0.11818343 0.068129271 1.5860001
0.12652579 0.065348484 1.5860001
0.13486816 0.064421557 1.5860001
0.14487898 0.064236164 1.5860001
0.15488982 0.063680008 1.5860001
-0.24331881 0.075081237 1.5860002
-0.01251354 0.070910059 1.5860001
-0.0027807867 0.073690847 1.5860001
0.0058396524 0.075359315 1.5860001
0.015294327 0.072763912 1.5860001
0.023636688 0.072300449 1.5860001
0.034759831 0.074617781 1.5860001
0.044492587 0.077862024 1.5860001
0.055615734 0.079252422 1.5860001
0.062567696 0.079252422 1.5860001
0.086667843 0.075544707 1.5860001
0.094268665 0.072022364 1.5860001
0.10149872 0.070910059 1.5860001
0.11540265 0.070910059 1.5860001
-0.24192843 0.08481399 1.5860001
0.05422534 0.08203321 1.5860001
0.065348484 0.08203321 1.5860001
0.072300449 0.08203321 1.5860001
-0.23775727 0.090375565 1.5860001
0.40944016 -0.49887419 1.5940001
0.41502976 -0.49887419 1.5940002
0.4206194 -0.49607936 1.5940002
0.43738827 -0.49468195 1.5940001
0.44367662 -0.49375036 1.594
0.45295939 -0.49408308 1.594
0.43738827 -0.48629752 1.5940001
0.44437531 -0.48490003 1.594
0.45415714 -0.48420143 1.594
0.44437531 -0.47511828 1.594
0.4555546 -0.47511828 1.594
0.46254161 -0.47511825 1.5940001
0.43552506 -0.46626803 1.5940002
0.44475642 -0.46559048 1.594
0.4555546 -0.46533641 1.594
0.47651568 -0.46393901 1.5940001
0.4178246 -0.45415717 1.5940001
0.4206194 -0.45555457 1.5940001
0.43738827 -0.45415717 1.5940001
0.44670433 -0.45602036 1.594
0.45555457 -0.45555452 1.594
0.46645433 -0.45303923 1.5940001
0.47434199 -0.45446771 1.594
0.43738827 -0.44484115 1.5940002
0.4439095 -0.44297791 1.5940002
0.45583406 -0.44428211 1.594
0.46533635 -0.44437531 1.594
0.47232345 -0.44437531 1.594
0.43738827 -0.43599087 1.5940001
0.44465479 -0.4340345 1.594
0.45555457 -0.43459353 1.594
0.46533638 -0.43459347 1.594
0.47372088 -0.43459344 1.594
0.44507402 -0.42620903 1.594
0.45564774 -0.42509112 1.594
0.46533641 -0.4248116 1.594
0.47372085 -0.42580971 1.594
0.48350269 -0.42900383 1.5940001
0.45741776 -0.41456398 1.594
0.46533644 -0.41502979 1.594
0.47455937 -0.41447082 1.594
0.44717014 -0.40245312 1.5940001
0.45615348 -0.40524793 1.594
0.46505696 -0.40608636 1.594
0.47511828 -0.40944016 1.5940001
0.45695195 -0.39714298 1.5940001
0.46254161 -0.39826089 1.5940001
-0.26131505 0.02934554 1.5940001
-0.25293061 0.028646836 1.5940001
-0.24384747 0.028646838 1.5940001
-0.23489136 0.026804799 1.594
-0.22418395 0.025352951 1.594
-0.21500099 0.028147763 1.594
-0.20506944 0.026900077 1.594
-0.19563694 0.024454616 1.594
-0.18585508 0.027249431 1.594
-0.17607324 0.02934554 1.5940001
-0.16349658 0.027748505 1.594
-0.15650955 0.027948134 1.5940001
-0.26271248 0.034935165 1.594
-0.25432801 0.034935165 1.594
-0.24454615 0.034935161 1.594
-0.23755914 0.033537757 1.5940001
-0.21659803 0.032140352 1.5940001
-0.18166286 0.032140352 1.5940001
-0.17467582 0.032140352 1.5940002
-0.1669901 0.032839056 1.5940001
-0.15231733 0.03353776 1.5940001
-0.1447314 0.036132939 1.594
-0.13554846 0.037729979 1.5940002
-0.12576661 0.037729979 1.5940001
-0.26522779 0.044996496 1.594
-0.25665703 0.042388003 1.594
-0.24361455 0.041456398 1.5940002
-0.13415104 0.040524792 1.5940001
-0.12530081 0.042388003 1.5940002
-0.11474261 0.042388003 1.594
-0.1048055 0.043319602 1.5940002
-0.094092049 0.044251207 1.594
-0.085241795 0.046114422 1.594
-0.07639157 0.047046024 1.594
-0.065678112 0.048909232 1.5940001
-0.28087875 0.057293672 1.5940001
-0.27622071 0.055430461 1.594
-0.26690468 0.054498862 1.594
-0.088036619 0.051704045 1.5940001
-0.074062549 0.051704045 1.5940002
-0.064280711 0.05310145 1.594
-0.054498855 0.054498862 1.5940002
-0.045182813 0.055430461 1.5940002
-0.034935165 0.057293672 1.5940002
-0.027948134 0.057293672 1.5940001
0.15790695 0.057293672 1.5940001
-0.26597309 0.062883295 1.594
-0.25448328 0.065367579 1.594
-0.032140352 0.060088485 1.5940001
-0.024221716 0.061020095 1.594
-0.015371473 0.066143923 1.594
0.0083844401 0.068472929 1.5940001
0.013974067 0.068472929 1.5940001
0.0209611 0.068472929 1.5940001
0.095489465 0.068472929 1.5940002
0.12436919 0.065678112 1.5940001
0.13694584 0.062883303 1.5940001
0.14463159 0.061485894 1.5940001
0.15371473 0.060088485 1.5940001
-0.25265113 0.074621513 1.594
-0.24734098 0.078254774 1.5940001
-0.0055896267 0.071267739 1.5940001
0.0046580224 0.072199337 1.594
0.015371474 0.071267739 1.5940001
0.027948134 0.071267739 1.5940001
0.034935165 0.072665147 1.5940001
0.04471701 0.075459957 1.5940001
0.054498862 0.075459965 1.594
0.064839676 0.076298408 1.594
0.074994154 0.077788979 1.594
0.084543101 0.074062556 1.5940001
0.090831436 0.071267739 1.5940001
0.1062029 0.071267739 1.5940001
0.11318994 0.071267739 1.5940001
-0.25013578 0.082446992 1.5940001
-0.24734098 0.082446992 1.5940001
0.40744078 -0.49615857 1.6063334
0.41473788 -0.49519995 1.6021427
0.42624104 -0.49470407 1.602
0.43369487 -0.49545082 1.601
0.40765089 -0.48664206 1.6090001
0.41525349 -0.48586708 1.6045997
0.42533284 -0.48551881 1.6053077
0.43421173 -0.48513135 1.6015333
0.41714823 -0.47475335 1.6060909
0.42546681 -0.47423095 1.6017272
0.4348177 -0.47467831 1.601
0.418107 -0.46523526 1.6068183
0.42527366 -0.46457285 1.601
0.43481773 -0.46401143 1.6010001
0.44211614 -0.46316931 1.6010001
0.48141536 -0.46457285 1.6010001
0.41774201 -0.45492879 1.6066
0.42583504 -0.45418662 1.6010001
0.43412673 -0.45485595 1.601
0.44422144 -0.45474803 1.601
0.45053741 -0.45053741 1.6010001
0.47860828 -0.45053741 1.6010001
0.48261815 -0.45587718 1.6050001
0.41707546 -0.44586402 1.6072856
0.42527366 -0.44492325 1.601
0.43425626 -0.44492325 1.6010001
0.44492322 -0.44527408 1.601
0.45147312 -0.44679463 1.6010002
0.47860828 -0.44492325 1.6010002
0.48436037 -0.44442737 1.6076669
0.4191767 -0.437011 1.6063334
0.42499766 -0.43569642 1.6063331
0.43382275 -0.43429217 1.603222
0.44398752 -0.43650198 1.6010002
0.48463169 -0.43625158 1.6042001
0.42457756 -0.42457756 1.6090001
0.43511206 -0.42487425 1.6032857
0.44388556 -0.42421958 1.6023334
0.45240879 -0.42340222 1.6010002
0.41893533 -0.41470367 1.6090001
0.42434171 -0.41471812 1.6063333
0.43416053 -0.41481566 1.6033528
0.44492325 -0.41544887 1.601
0.45362514 -0.41657168 1.6010001
0.42373314 -0.40458608 1.6058
0.43478289 -0.40473893 1.603947
0.44436184 -0.40422049 1.6010001
0.45222163 -0.40450114 1.6010001
0.46737993 -0.40141338 1.6010001
0.47499919 -0.40381941 1.601
0.48141536 -0.40422046 1.6010001
0.42457756 -0.39918754 1.6090001
0.43654692 -0.39608288 1.6068181
0.44448766 -0.39387596 1.6036664
0.45462039 -0.39414051 1.601
0.46492374 -0.39404479 1.601
0.47355551 -0.39467639 1.6010001
0.43868312 -0.38508198 1.6090001
0.44583437 -0.38616875 1.6076666
0.45511732 -0.38578942 1.6044284
0.46459392 -0.38485065 1.603857
0.47258207 -0.38546106 1.6027778
0.44432536 -0.37661862 1.6090001
0.45702034 -0.3773239 1.6090001
0.46517539 -0.37881088 1.6063334
0.47265437 -0.37614697 1.6070001
0.34464601 -0.32113674 1.6090001
0.34593901 -0.31490678 1.6090001
0.35122859 -0.31314355 1.6090001
0.34639242 -0.30568776 1.6090001
0.35122859 -0.30891192 1.6090001
-0.26095298 -0.24120519 1.6090001
-0.25672132 -0.24120519 1.6090001
-0.26095298 -0.23697352 1.6090001
-0.25611681 -0.23596597 1.6090001
-0.26095298 -0.22709961 1.6090001
-0.25531077 -0.22851019 1.6090001
-0.26095298 -0.21722573 1.6090001
-0.25813186 -0.21581517 1.6090001
-0.23838407 0.0098738968 1.6090001
-0.22709963 0.0098738968 1.6090001
-0.21299405 0.0098738968 1.6090001
-0.26236355 0.01692668 1.6090001
-0.25531077 0.015516122 1.6090001
-0.24434927 0.01578 1.6073999
-0.23530269 0.015495863 1.6072223
-0.22619665 0.015770882 1.6066
-0.21299407 0.016221402 1.6090001
-0.20453072 0.015868763 1.6090001
-0.19477564 0.015234793 1.6068181
-0.18609968 0.017736545 1.6058
-0.1791407 0.018337237 1.6090001
-0.16503513 0.018337237 1.6090001
-0.15798235 0.018337237 1.6090001
-0.27364796 0.026800578 1.6090001
-0.26508737 0.025210779 1.6060909
-0.2552309 0.02422045 1.6045556
-0.24558404 0.023261376 1.6027777
-0.23439173 0.021754922 1.6010001
-0.22484763 0.022175986 1.6010001
-0.214656 0.022833878 1.603
-0.20491734 0.021754922 1.6010001
-0.18409212 0.023184765 1.6029999
-0.17477883 0.024159035 1.6056666
-0.16605507 0.023489282 1.6032858
-0.15413694 0.025027955 1.6042
-0.14492615 0.028137492 1.605
-0.13541344 0.029621691 1.6090001
-0.12836066 0.029621691 1.6090001
-0.28070077 0.035263915 1.6090001
-0.27460733 0.035205469 1.6063334
-0.26807678 0.035088584 1.6010002
-0.15017913 0.032281496 1.6010001
-0.14456497 0.032281496 1.6010002
-0.13474014 0.03368504 1.601
-0.12512107 0.033738811 1.6036668
-0.11593754 0.036769778 1.6044285
-0.10522752 0.037520804 1.609
-0.094507299 0.03667447 1.6090001
-0.084960975 0.036141168 1.6063334
-0.076640241 0.037144657 1.6090001
0.2278049 0.037379749 1.6090001
0.23556297 0.038085029 1.6090001
-0.28295767 0.045984149 1.609
-0.2758528 0.045097724 1.6031818
-0.10526576 0.040702756 1.6010002
-0.095440954 0.040702756 1.6010001
-0.084212601 0.040702756 1.6010001
-0.074081615 0.043184381 1.602
-0.065318279 0.045885608 1.603909
-0.054963786 0.047918018 1.6076669
-0.045137815 0.049369484 1.6090001
-0.035263915 0.049369484 1.6090001
-0.025390022 0.049369484 1.6090001
-0.01692668 0.049369484 1.6090001
0.15359499 0.047627725 1.6074002
0.21863629 0.049369484 1.6090001
0.22415105 0.044229925 1.6034615
0.23475693 0.04332424 1.6090001
0.24120519 0.040906142 1.6090001
-0.2854006 0.054448012 1.6063334
-0.27462664 0.052866798 1.6010002
-0.05473819 0.051931102 1.6010002
-0.044013929 0.052910049 1.6023334
-0.035149366 0.053421143 1.6036667
-0.024724808 0.054228675 1.6026001
-0.015847722 0.055292469 1.6070001
0.0056422264 0.057832822 1.6090001
0.015516124 0.057832822 1.6090001
0.025390022 0.057832822 1.6090001
0.034558639 0.057127543 1.6090001
0.044667628 0.057832822 1.6090001
0.052190598 0.057832822 1.6090001
0.067706719 0.057832822 1.6090001
0.1269501 0.057832822 1.6090001
0.13494326 0.057832822 1.6090001
0.14570428 0.056646865 1.6074002
0.15428242 0.054579914 1.6039089
0.21863629 0.052190598 1.6090001
0.22145739 0.052190598 1.6090001
-0.27369094 0.060352363 1.6010001
-0.26386616 0.06877362 1.6010001
-0.25965551 0.067370079 1.6010001
-0.014877561 0.061475195 1.6010001
-0.0056282002 0.064717293 1.6049998
0.0052231802 0.064092733 1.6044284
0.015742829 0.063811347 1.6033999
0.025578151 0.064362712 1.6031331
0.035176251 0.064717293 1.6049999
0.045025595 0.064717293 1.6049997
0.054874945 0.064717285 1.605
0.064784348 0.064779095 1.6064998
0.074666582 0.064799689 1.6069999
0.084050052 0.065344855 1.6055714
0.095091596 0.065506727 1.6070001
0.10461916 0.06614498 1.6054446
0.11565951 0.065845035 1.6050001
0.12486903 0.062531762 1.6055715
0.13417295 0.061034411 1.6042001
0.14175788 0.060352363 1.6010001
-0.26236355 0.073348947 1.6090001
-0.25965551 0.071580708 1.6010001
0.036492124 0.071580708 1.6010001
0.045849081 0.072516404 1.601
0.05473819 0.071580708 1.6010002
0.064562991 0.071580708 1.6010001
0.07494922 0.07270354 1.6010001
0.082107291 0.072282478 1.6010001
0.11087992 0.071580708 1.6010001
-0.25544488 0.080001973 1.6010001
0.39809081 -0.49584267 1.6160001
0.4037576 -0.49442598 1.6160001
0.39809081 -0.48450911 1.6160001
0.40517426 -0.48471147 1.6159998
0.41225776 -0.48309243 1.6160001
0.40659097 -0.47459227 1.6160001
0.41339111 -0.47402558 1.6159999
0.40715766 -0.46524209 1.6159999
0.41367441 -0.4646754 1.6160001
0.48875919 -0.46042532 1.6160001
0.40871602 -0.45405021 1.6160001
0.41296613 -0.4554669 1.6160001
0.48875919 -0.45475855 1.6160001
0.4084799 -0.44484165 1.6160001
0.4138768 -0.44342497 1.6160001
0.48875919 -0.44909179 1.6160001
0.41544527 -0.43457067 1.6160001
0.42170238 -0.43398038 1.6160001
0.40942436 -0.42075792 1.6160001
0.41509107 -0.42500797 1.6159998
0.42436406 -0.42590952 1.6159999
0.43209147 -0.42642468 1.6160001
0.40942436 -0.41650784 1.6160001
0.4150911 -0.4150911 1.6160001
0.42075792 -0.41225776 1.6160001
0.41603553 -0.40564647 1.6160001
0.42264688 -0.40375757 1.6160001
0.41792452 -0.39525744 1.6160001
0.42462161 -0.39525744 1.6159999
0.43411532 -0.39485267 1.6160001
0.41721618 -0.38675728 1.6160001
0.42440081 -0.38534063 1.6159998
0.43466723 -0.38546941 1.6159999
0.44578615 -0.38345167 1.6160001
0.45475855 -0.38109049 1.6160001
0.46609211 -0.38109049 1.6160001
0.42359129 -0.37684044 1.6160001
0.43532962 -0.37623325 1.6160001
0.44484171 -0.37684044 1.6160001
0.45419186 -0.37712377 1.6159999
0.46665877 -0.37712377 1.6159999
0.47175887 -0.3754237 1.6160001
0.4462584 -0.36975697 1.6160001
0.45419186 -0.36862361 1.6159999
0.3385897 -0.34425649 1.6160001
0.34534618 -0.34469235 1.6159998
0.35559002 -0.34283975 1.6160001
0.36125681 -0.34142309 1.6160001
0.3357563 -0.33170864 1.6160001
0.34567311 -0.33433962 1.6159997
0.35559008 -0.33433962 1.6159998
0.36338186 -0.33363128 1.6160001
0.33433962 -0.32442281 1.6159998
0.34551573 -0.32505241 1.6160001
0.35559005 -0.32442281 1.6160001
0.36239016 -0.32498947 1.6159999
0.32725614 -0.31308922 1.6160001
0.33433962 -0.3145059 1.6159997
0.34236756 -0.31356144 1.6160001
0.35653451 -0.31497818 1.6160001
0.3618235 -0.31535593 1.6159999
0.32482752 -0.30377954 1.6160001
0.33433962 -0.30458906 1.6159998
0.34425646 -0.30377951 1.6160001
0.35559005 -0.30458906 1.6160001
0.31875598 -0.29467219 1.6160001
0.32442281 -0.29467222 1.6159998
0.33433962 -0.29467225 1.6159997
0.34567311 -0.29467219 1.6159997
0.35346499 -0.29679725 1.6160001
0.32612282 -0.28532201 1.6159999
0.33433962 -0.28475532 1.6159998
0.34482312 -0.28503865 1.6159999
0.42075792 -0.28192198 1.6160001
0.3256371 -0.27544564 1.6160001
0.33405629 -0.27512181 1.6159997
0.34236756 -0.27814412 1.6160001
0.41792452 -0.27908859 1.6160001
0.42075792 -0.27908859 1.6160001
-0.26208827 -0.24650463 1.6160001
-0.25925487 -0.24650463 1.6160001
-0.24338794 -0.24508795 1.6159999
-0.23800448 -0.24225456 1.6160001
-0.2110873 -0.24508795 1.6160001
-0.264355 -0.23488775 1.6159999
-0.25188807 -0.23432107 1.6159999
-0.24483036 -0.23478471 1.6159999
-0.23847671 -0.23847671 1.6160001
-0.26350498 -0.22383755 1.6160001
-0.25453261 -0.22430976 1.6160001
-0.24508797 -0.22525422 1.6160001
-0.23800448 -0.22242086 1.6160001
-0.26350498 -0.21462904 1.6160001
-0.2544381 -0.21703741 1.6159999
-0.24549271 -0.21756361 1.6160001
-0.23800448 -0.21958746 1.6160001
-0.28192198 0.0099168532 1.6160001
-0.27455518 0.009350176 1.6159999
-0.26451689 0.0078930054 1.6160001
-0.25511381 0.0066475612 1.6159998
-0.24508794 0.0070834672 1.6160001
-0.23478474 0.0068258862 1.6159999
-0.22525425 0.0056667733 1.6159999
-0.21580958 0.0063751205 1.6159998
-0.2058253 0.0078930063 1.6160001
-0.19611083 0.0087025445 1.6160001
-0.18700352 0.0099168532 1.6160001
-0.28305534 0.016150305 1.6159999
-0.27483848 0.015583627 1.6159998
-0.26605502 0.014450273 1.6159999
-0.25075471 0.014166933 1.6160001
-0.22242086 0.014166933 1.6160001
-0.21817076 0.014166933 1.6160001
-0.20542054 0.01275024 1.6160001
-0.18502015 0.013883595 1.6159999
-0.17566997 0.016291974 1.6160001
-0.16433643 0.014639165 1.6160001
-0.15725295 0.015583627 1.6160001
-0.28475535 0.025500482 1.6159998
-0.27665994 0.023679016 1.6160001
-0.26492167 0.024083786 1.6160001
-0.15300289 0.021250401 1.6160001
-0.14450271 0.024792133 1.6160001
-0.13458587 0.026917173 1.6160001
-0.1260857 0.028806096 1.6160001
-0.28617203 0.035417333 1.6160001
-0.12041894 0.032583948 1.6160001
-0.11475217 0.03352841 1.6160001
-0.10341861 0.035417333 1.6160001
-0.094918452 0.032583948 1.6160001
-0.083584905 0.032583948 1.6160001
-0.075084746 0.035417333 1.6160001
0.23658778 0.034708988 1.6160001
-0.28645536 0.043350816 1.6159999
-0.063042849 0.041792452 1.6160001
-0.055251036 0.043917492 1.6160001
-0.04533419 0.047695339 1.6160001
-0.035417333 0.046750885 1.6160001
-0.02550048 0.046750881 1.6160001
-0.015583627 0.047695339 1.6160001
0.0042500799 0.049584266 1.6160001
0.015583627 0.049584266 1.6160001
0.02550048 0.049584266 1.6160001
0.14780833 0.048639804 1.6160001
0.15158619 0.045334186 1.6160001
0.23942117 0.043917492 1.6160001
0.24225456 0.043917492 1.6160001
-0.01275024 0.052417655 1.6160001
-0.005464389 0.056060582 1.6160001
0.0056667733 0.053834349 1.6160001
0.015583627 0.053834345 1.6160001
0.025298093 0.054036733 1.6160001
0.035417333 0.054306578 1.6160001
0.044861954 0.056195501 1.6160001
0.05666773 0.058084425 1.6160001
0.064695664 0.057139963 1.6160001
0.075084746 0.058084425 1.6160001
0.082168207 0.058084425 1.6160001
0.10058523 0.058084425 1.6160001
0.12466901 0.056667734 1.6160001
0.13499065 0.054441504 1.6160001
0.14355825 0.053362116 1.6160001
0.2337544 0.058084425 1.6160001
0.087834984 0.060917813 1.6160001
0.094918452 0.060917813 1.6160001
0.10483531 0.062334508 1.6160001
0.11333546 0.062334508 1.6160001
0.12041894 0.060917813 1.6160001
0.38745159 -0.4960601 1.6240003
0.39436674 -0.49544999 1.6240004
0.40006158 -0.49260253 1.6240001
0.38724822 -0.48833138 1.6240001
0.39436674 -0.48548397 1.6240003
0.40148526 -0.48263657 1.6240001
0.39664468 -0.47580281 1.6240002
0.40148529 -0.47551805 1.6240003
0.49592447 -0.47219601 1.6240001
0.39721414 -0.46839949 1.6240001
0.40290901 -0.46555209 1.6240003
0.49402621 -0.46270466 1.6240001
0.40547165 -0.4561556 1.6240003
0.49402621 -0.45843357 1.6240001
0.40385816 -0.44562012 1.6240003
0.4073835 -0.43504408 1.6240003
0.41202068 -0.43650848 1.6240002
0.40656996 -0.42528149 1.6240003
0.41145122 -0.42711198 1.6240001
0.4068242 -0.4167901 1.6240003
0.41145122 -0.41287494 1.6240001
0.40765467 -0.40528187 1.6240002
0.41334951 -0.40385816 1.6240003
0.40718013 -0.39436674 1.6240001
0.41429862 -0.39436674 1.6240003
0.4313831 -0.39436674 1.6240001
0.40860382 -0.3886719 1.6240001
0.41559285 -0.38401249 1.6240004
0.43423054 -0.3829771 1.6240001
0.44277278 -0.38440078 1.6240001
0.41714603 -0.37443489 1.6240003
0.42568827 -0.37301114 1.6240002
0.43458647 -0.37336707 1.6240003
0.44505072 -0.37443483 1.6240002
0.45644036 -0.37500435 1.6240002
0.46555209 -0.37396029 1.6240002
0.47219601 -0.37253657 1.6240001
0.32887623 -0.3616215 1.6240001
0.33457103 -0.3616215 1.6240002
0.3402659 -0.3616215 1.6240001
0.4071801 -0.36019778 1.6240001
0.41688716 -0.36356294 1.6240004
0.4256883 -0.3644689 1.6240004
0.43829829 -0.36507908 1.6240003
0.44562021 -0.3644689 1.6240004
0.45558617 -0.36385876 1.6240004
0.46327415 -0.36418414 1.6240002
0.4712469 -0.36874002 1.6240001
0.32887623 -0.35165554 1.6240001
0.33457109 -0.35450295 1.6240003
0.34406245 -0.35418656 1.6240003
0.35379112 -0.3523674 1.6240001
0.36019778 -0.35165554 1.6240001
0.41714606 -0.35592666 1.6240002
0.42650181 -0.35490972 1.6240003
0.4470439 -0.35735038 1.6240001
0.45334885 -0.35490972 1.6240003
0.32745254 -0.34453702 1.6240003
0.33457109 -0.34453702 1.6240004
0.3402659 -0.3402659 1.6240001
0.35592666 -0.34880814 1.6240001
0.36589262 -0.34544298 1.6240004
0.37229928 -0.34240144 1.6240001
0.42758656 -0.347859 1.6240001
0.45416242 -0.34880814 1.6240001
0.32638475 -0.33421516 1.6240003
0.3340016 -0.33627948 1.6240002
0.36731631 -0.33457106 1.6240001
0.37301114 -0.33457103 1.6240002
0.32559076 -0.32427657 1.6240004
0.36817056 -0.32432038 1.6240002
0.37158743 -0.32460511 1.6240001
0.31748658 -0.31179175 1.6240001
0.32375088 -0.31463915 1.6240003
0.36731634 -0.31463918 1.6240002
0.30894434 -0.30324951 1.6240001
0.31489798 -0.30428496 1.6240004
0.32204241 -0.3072359 1.6240002
0.36345196 -0.3048766 1.6240003
0.30752063 -0.2947073 1.6240002
0.31463915 -0.2947073 1.6240003
0.35663852 -0.29399544 1.6240001
0.36019778 -0.29613099 1.6240001
0.42284086 -0.29185987 1.6240001
0.30894434 -0.28901246 1.6240001
0.31527191 -0.28584865 1.6240003
0.32223228 -0.28458315 1.6240003
0.34880814 -0.28047022 1.6240001
0.3536894 -0.28535149 1.6240003
0.41856974 -0.28474134 1.6240001
0.31577817 -0.27591437 1.6240002
0.32277465 -0.27436861 1.6240003
0.34453702 -0.27477539 1.6240002
0.41856974 -0.27762279 1.6240001
0.31691709 -0.26395521 1.6240002
0.32460514 -0.26480946 1.6240004
0.33362195 -0.265284 1.6240003
0.3402659 -0.26908055 1.6240001
-0.26338574 -0.25199607 1.6240001
-0.25341979 -0.25413162 1.6240001
-0.24487756 -0.25484347 1.6240004
-0.23775901 -0.25484347 1.6240001
-0.22209823 -0.25199607 1.6240001
-0.21497969 -0.25341979 1.6240002
-0.20833574 -0.25294521 1.6240001
0.31606287 -0.25769091 1.6240001
0.32399493 -0.25647059 1.6240003
0.33172366 -0.25769091 1.6240001
-0.27192798 -0.24060643 1.6240001
-0.266945 -0.24487755 1.6240001
-0.25421071 -0.24598487 1.6240003
-0.24630125 -0.24589448 1.6240003
-0.23586072 -0.24582671 1.6240002
-0.22494565 -0.24558942 1.6240003
-0.21533561 -0.24630126 1.6240003
-0.20833574 -0.24819952 1.6240001
-0.28047022 -0.23206419 1.6240001
-0.27534488 -0.2354811 1.6240002
-0.26908055 -0.23633531 1.6240001
-0.24060643 -0.2334879 1.6240001
-0.23491161 -0.23491161 1.6240003
-0.2280778 -0.23548107 1.6240002
-0.24060643 -0.22779307 1.6240001
-0.23562346 -0.22850491 1.6240001
-0.22921677 -0.22921677 1.6240001
-0.26053831 -0.21213229 1.6240001
