# .PCD v0.7 - Point Cloud Data file format
VERSION 0.7
FIELDS x y z
SIZE 4 4 4
TYPE F F F
COUNT 1 1 1
WIDTH 1491
HEIGHT 1
VIEWPOINT 0 0 0 1 0 0 0
POINTS 1491
DATA ascii
0.096105509 0.14544773 1.0358752
0.10357081 0.14428687 1.032154
0.071888417 0.15014669 1.0380001
0.083718166 0.1556066 1.0380001
0.094642207 0.15430051 1.0358078
0.1029027 0.15562931 1.0333002
0.084628142 0.16288643 1.0380001
0.38458753 -0.32033664 1.0470001
0.38560215 -0.31335238 1.0463077
0.39080748 -0.31026635 1.044
0.38548544 -0.30443534 1.0450591
0.39231375 -0.30397347 1.0418181
0.38681573 -0.2950165 1.0451003
0.39526153 -0.29446882 1.0410001
0.3875685 -0.2854358 1.0441252
0.39437792 -0.28538617 1.0410001
0.38810694 -0.27577934 1.0455
0.39275923 -0.27401894 1.0419
0.38811153 -0.26609975 1.0458461
0.39428362 -0.26441678 1.0419093
0.40063578 -0.26648211 1.041
0.38825899 -0.25700361 1.0470001
0.39398655 -0.25485191 1.0434169
0.40063578 -0.25279295 1.041
0.38825899 -0.24323554 1.0470001
0.39515212 -0.24561062 1.0452975
0.40119824 -0.24468617 1.0431429
0.39482543 -0.23601913 1.0465165
0.40063578 -0.2381912 1.041
0.39376622 -0.22854963 1.0470001
0.11837827 0.10738947 1.0447501
0.1249452 0.10624813 1.0443158
0.1345578 0.10764459 1.0465
0.14495495 0.10671803 1.0455716
0.15493028 0.10542393 1.0457143
0.16039711 0.10265285 1.0455
0.0082489951 0.11915083 1.0455
0.016511668 0.11815275 1.0464
0.024758821 0.11829039 1.0459999
0.035796929 0.11840524 1.0470001
0.045543712 0.1189023 1.046
0.055529069 0.11878207 1.0457143
0.065216348 0.11885448 1.0450908
0.07515613 0.11786345 1.0447896
0.082796343 0.11853981 1.0455
0.10627662 0.11725422 1.0437858
0.11502527 0.11396882 1.0426157
0.12511764 0.1132432 1.0417502
0.1347488 0.1150099 1.0435717
0.14264919 0.11337914 1.0434705
-0.06149729 0.12941967 1.0470001
-0.053542417 0.12799187 1.0470001
-0.04455658 0.12664559 1.0443333
-0.03578838 0.12457693 1.0441501
-0.025201973 0.12373229 1.0455
-0.013554018 0.12360525 1.0437143
-0.0043438827 0.1233573 1.0430002
0.0044180704 0.12357175 1.0428752
0.014400781 0.12313002 1.0430001
0.0246445 0.12322566 1.0412002
0.034373723 0.12219542 1.0435716
0.044674989 0.12248451 1.0426877
0.054515876 0.12315669 1.0415295
0.06483423 0.12235968 1.0416
0.075659521 0.12358829 1.0413752
0.085268833 0.12505226 1.0438697
0.095233344 0.12593956 1.0449601
0.10232048 0.12287721 1.042125
0.13343436 0.12155203 1.0425
-0.06149729 0.13309115 1.0470001
-0.055259526 0.13339059 1.0441365
-0.045500129 0.13102473 1.041
-0.037417009 0.13050322 1.041
-0.01003871 0.13050322 1.041
-0.0063882698 0.13050322 1.041
0.078331918 0.13563348 1.0430001
0.085428819 0.13499716 1.0424403
0.092956021 0.13453731 1.0414094
0.075890727 0.1461422 1.0443158
0.084952891 0.14483568 1.0420003
0.091362394 0.14409098 1.041
0.0758738 0.15484442 1.0418079
0.085329026 0.15468739 1.0410001
0.09295585 0.15736003 1.041
0.10434175 0.15970674 1.041
0.06884025 0.1679702 1.0470001
0.075634517 0.1644097 1.0451113
0.084907271 0.16549739 1.0414093
0.094721235 0.16504087 1.0417503
0.10345249 0.16378228 1.0426365
0.06702204 0.17385045 1.0485001
0.077915899 0.17375357 1.0456364
0.085070089 0.17471352 1.0434002
0.091489486 0.17360795 1.043625
0.07985469 0.18082039 1.0470001
0.084228031 0.18488994 1.0485001
0.38084766 -0.33173591 1.057
0.37954608 -0.32432532 1.0548571
0.38144907 -0.32294297 1.0510001
0.37947711 -0.31403261 1.055125
0.38232815 -0.31557697 1.0502502
0.3782002 -0.30513746 1.054
0.38069251 -0.3046855 1.0500001
0.37887147 -0.29477587 1.0540833
0.3814818 -0.29489809 1.0506667
0.37930396 -0.28537825 1.0550001
0.38330498 -0.28519896 1.0518
0.37976673 -0.278126 1.054
0.38353568 -0.27507675 1.0515653
0.38413468 -0.26499313 1.0529643
0.38485086 -0.25528944 1.0525863
0.38590467 -0.24530928 1.0514332
0.39489448 -0.243012 1.0500001
0.38658109 -0.23483633 1.0526297
0.39489451 -0.23178189 1.0500001
0.38752455 -0.22573787 1.0538888
0.3926883 -0.22490565 1.0509999
0.38900679 -0.21898958 1.054
0.39322096 -0.21710992 1.0550667
0.39048472 -0.20626931 1.057
0.14826187 0.088957123 1.057
0.1297905 0.098493502 1.0500001
0.13655536 0.097622782 1.0516667
0.1450934 0.095770858 1.0548096
0.15429673 0.096462168 1.0555
0.16378106 0.09700302 1.0555
0.17402236 0.095814228 1.057
0.037229229 0.10872455 1.0564001
0.04575859 0.10910107 1.0556667
0.05459398 0.10918663 1.0555
0.066668525 0.10880157 1.0562501
0.074025735 0.10918664 1.0555
0.11461335 0.10875693 1.0543333
0.12794951 0.10278916 1.0500001
0.13501981 0.10278584 1.0505999
0.14405826 0.10171526 1.0500001
0.15432973 0.10228832 1.0511765
0.16200799 0.1003345 1.0500001
-0.073204294 0.11953613 1.057
-0.065605886 0.11879484 1.057
-0.054153346 0.11871459 1.0558751
-0.044847883 0.11613885 1.0542382
-0.035094757 0.11536954 1.0534645
-0.024952764 0.11584566 1.0541364
-0.014900452 0.11550915 1.0529286
-0.0047050281 0.11601824 1.0531429
0.004393958 0.1150335 1.05316
0.01430482 0.11330246 1.0526427
0.024927001 0.11267672 1.0531052
0.034655962 0.11395875 1.0527585
0.044919726 0.11431084 1.0515909
0.054728128 0.11415259 1.0513332
0.065039173 0.11339054 1.0523332
0.074244902 0.11352685 1.0515386
0.084758073 0.11490193 1.0538946
0.095433593 0.1166952 1.0546111
0.10399538 0.11547422 1.0537857
0.11082514 0.11082514 1.0535001
-0.073889934 0.12486152 1.0534999
-0.065391988 0.12528084 1.0516206
-0.055466846 0.12460395 1.0515832
-0.045564752 0.12196624 1.0500001
-0.035373501 0.1208485 1.0500001
-0.025543874 0.12127588 1.0500001
-0.016108749 0.12104575 1.0500001
0.088674836 0.12119917 1.0500001
0.094121121 0.12127588 1.0500001
0.1003345 0.1205855 1.0500001
-0.064741835 0.13285883 1.0500001
0.078242503 0.1389955 1.0500001
0.076218657 0.14256778 1.0511429
0.080798857 0.141629 1.0513334
0.068117 0.16569 1.0500001
0.073333167 0.16722417 1.0500001
0.074007921 0.17569296 1.050421
0.066730917 0.1844715 1.0547501
0.074527606 0.18504877 1.0524815
0.076035105 0.19419377 1.0539412
0.082034461 0.19436124 1.0514286
0.077725708 0.20172012 1.0555
0.080982707 0.20437454 1.0548571
0.37509674 -0.34329301 1.067
0.3756507 -0.33393046 1.0638419
0.38007006 -0.33267745 1.0600001
0.3753992 -0.32491446 1.0637141
0.38007006 -0.32524332 1.0600001
0.37528244 -0.31524691 1.0629998
0.38007006 -0.31780919 1.0600001
0.37502295 -0.30422038 1.0627307
0.37539893 -0.29473811 1.0629998
0.36948431 -0.28436261 1.067
0.37478849 -0.28508574 1.0630645
0.38007006 -0.28156781 1.0600001
0.37467903 -0.27506176 1.0629394
0.38068953 -0.27475315 1.0600001
0.37515149 -0.26541355 1.0628517
0.38076702 -0.26530564 1.0600001
0.37683314 -0.25557268 1.0632726
0.38089606 -0.25513533 1.0600001
0.37767145 -0.24488424 1.0651052
0.38188255 -0.24509312 1.0601766
0.37832755 -0.23469003 1.0648668
0.38248146 -0.23493992 1.0612354
0.37792826 -0.22619842 1.0655715
0.38388112 -0.22422966 1.0616537
0.37894922 -0.21821067 1.066
0.3846072 -0.21485628 1.0622857
0.39307979 -0.2128021 1.0600001
0.38459367 -0.20504063 1.0625128
0.39122126 -0.20165086 1.0600001
0.38527581 -0.19697779 1.0649
0.16826124 0.078689307 1.0643334
0.17485625 0.077234507 1.0666001
0.21607816 0.074832261 1.067
0.15681279 0.086835831 1.063
0.16544801 0.085058413 1.06624
0.17414285 0.085912175 1.065842
0.18380676 0.087460212 1.0670002
0.14682414 0.091068134 1.0600001
0.15572624 0.091575719 1.0605001
0.16497469 0.092374526 1.0616875
0.17466688 0.092301287 1.0612632
0.18465459 0.091505259 1.065125
0.19175768 0.090734124 1.067
-0.072337858 0.10881858 1.067
-0.064715758 0.1070011 1.066
-0.054390155 0.10731014 1.0644287
-0.045482259 0.10608922 1.0629048
-0.034889244 0.10705488 1.0629445
-0.0251773 0.10629623 1.06365
-0.015131266 0.10642518 1.0645217
-0.0047679129 0.1065908 1.0651052
0.004665094 0.10637106 1.0644
0.014932501 0.10664124 1.0645455
0.025445014 0.10593393 1.0642726
0.034150027 0.10524181 1.0642999
0.044611778 0.10474353 1.0642272
0.054983042 0.10436726 1.063
0.064856909 0.10536318 1.062826
0.075583048 0.10484363 1.0631001
0.084652089 0.10583076 1.0632273
0.094776966 0.10805056 1.0662
0.10496912 0.10760903 1.0662942
0.11427076 0.10592944 1.0643334
0.12160243 0.10570057 1.067
-0.081380092 0.11786082 1.067
-0.075050004 0.115679 1.0631598
-0.064847715 0.1138736 1.0613844
-0.05504626 0.11389324 1.0609545
-0.046566591 0.11161525 1.0600001
-0.034382865 0.11058273 1.0600001
-0.02455919 0.11111373 1.0600001
-0.014215024 0.11120315 1.0608572
-0.0039493833 0.11127967 1.0600001
0.0051109665 0.11058273 1.0600001
0.085802287 0.111512 1.0600001
0.094405964 0.11208986 1.0617143
0.10512495 0.11163719 1.0612
-0.08198265 0.12203815 1.0626668
-0.079062186 0.12184703 1.061
0.07734742 0.1388526 1.0630001
0.07734742 0.14071639 1.0630001
0.067836463 0.18864113 1.0600001
0.067064345 0.19420436 1.064375
0.072209828 0.19753918 1.062875
0.068284445 0.20111172 1.067
0.073949017 0.20543575 1.0628518
0.075041726 0.2147115 1.065923
0.080998741 0.21320534 1.0620002
0.079509281 0.222626 1.067
0.37337214 -0.34337172 1.074357
0.36934054 -0.33319527 1.0756668
0.37235272 -0.33550394 1.0723999
0.36873978 -0.32441643 1.0757499
0.37105921 -0.32576558 1.0700001
0.36864185 -0.31474686 1.075857
0.37160921 -0.31494305 1.0713333
0.36877173 -0.30489495 1.0754999
0.37194255 -0.30481398 1.0716363
0.36861965 -0.29508522 1.0753999
0.37146121 -0.29524601 1.0700001
0.36869913 -0.28474149 1.0752666
0.3708984 -0.28610015 1.0700001
0.36881313 -0.27492607 1.0755714
0.37052315 -0.27484375 1.0700001
0.36846867 -0.2659314 1.0763333
0.37165746 -0.26479816 1.0732857
0.368541 -0.25587004 1.077
0.37303126 -0.2551719 1.0724798
0.36901265 -0.2450643 1.0755454
0.37313986 -0.2447577 1.071
0.36850691 -0.23592488 1.075857
0.37380868 -0.23491278 1.0721923
0.36863092 -0.2259264 1.077
0.37414429 -0.22460224 1.0736295
0.36917046 -0.21715909 1.077
0.37523121 -0.21516551 1.0737058
0.37663081 -0.20507552 1.0738182
0.37550944 -0.19538409 1.0750624
0.38358703 -0.19308528 1.0711249
0.39037529 -0.19189532 1.0730001
0.37604269 -0.18530649 1.0756205
0.38397044 -0.18529356 1.0733913
0.39183053 -0.18977816 1.077
0.37766844 -0.17500687 1.0763845
0.38124064 -0.17627573 1.0752858
0.37719589 -0.166646 1.077
0.3805005 -0.16522975 1.077
0.17521597 0.07735119 1.0704286
0.18516694 0.077033035 1.0747619
0.19402692 0.077894017 1.077
0.17728829 0.082546927 1.0700001
0.18526617 0.083213933 1.0702307
0.19364136 0.084825888 1.0734762
0.20752855 0.081765123 1.077
0.21149409 0.08025445 1.077
-0.062126387 0.096116506 1.077
-0.054879382 0.09669444 1.0763682
-0.044366084 0.096360207 1.0744998
-0.035015382 0.096080385 1.0765998
-0.025460508 0.096177161 1.0755999
-0.016138453 0.09678755 1.0755881
-0.0049568922 0.098429717 1.077
0.005530138 0.098598316 1.077
0.015535888 0.098279506 1.0769999
0.025072958 0.098298587 1.077
0.035500791 0.09800484 1.0769999
0.044312604 0.0973984 1.0754615
0.054573022 0.09838251 1.0769999
0.064811841 0.098493114 1.0758573
0.076477766 0.098665759 1.077
0.084612146 0.097540013 1.0769999
-0.093236789 0.10692726 1.077
-0.084938161 0.10493351 1.0760398
-0.075223334 0.10497408 1.0736152
-0.064703196 0.10276468 1.0740713
-0.05606075 0.10283486 1.0725
-0.044617612 0.10188687 1.0723077
-0.035038173 0.10229403 1.0719286
-0.025349781 0.10139203 1.0709001
-0.01465564 0.10173333 1.0706923
-0.0045255926 0.10169134 1.0713636
0.0046967422 0.10144831 1.0715001
0.015026568 0.10183023 1.0712857
0.024648033 0.10117862 1.071125
0.035032351 0.10106639 1.0717143
0.045544915 0.10094411 1.0711251
0.055520177 0.1006885 1.0734001
0.06454245 0.10103959 1.0714287
0.074543349 0.1013076 1.0733333
0.085979633 0.10124897 1.0718751
0.094649553 0.10454419 1.0718
0.10464545 0.10288468 1.0705625
0.11496362 0.10219625 1.0738889
0.12400459 0.10261821 1.0761112
-0.093833812 0.11396325 1.0763333
-0.085890032 0.11451394 1.0732142
-0.079107478 0.11225132 1.0700001
-0.085361034 0.1210063 1.0700001
0.065662332 0.1998011 1.0700001
0.06510812 0.2058482 1.0721817
0.065068871 0.21498352 1.0732082
0.071290538 0.21856177 1.0700001
0.067846894 0.22451599 1.0765556
0.073954985 0.2247397 1.0726086
0.073173173 0.23179373 1.077
0.36798069 -0.35417148 1.0865
0.37154073 -0.35415745 1.0847143
0.36612427 -0.34504494 1.0858147
0.37101033 -0.34585252 1.08
0.36605167 -0.3349773 1.0843461
0.37019879 -0.33990121 1.08
0.36567569 -0.3245075 1.0847646
0.36519247 -0.3153626 1.0838888
0.36546504 -0.3051016 1.0834444
0.36530435 -0.29507658 1.0842222
0.36502489 -0.28507283 1.0847691
0.36459553 -0.27546191 1.0852307
0.36483556 -0.26507998 1.0837727
0.36586827 -0.25479215 1.0842856
0.35925713 -0.24395178 1.087
0.36455983 -0.24517019 1.0839641
0.35925713 -0.23664594 1.087
0.36411184 -0.23465015 1.0830356
0.36490753 -0.22489579 1.0843928
0.36655036 -0.21470952 1.0854285
0.37114558 -0.21208319 1.08
0.36771476 -0.2048329 1.0862105
0.37141982 -0.20560639 1.0808001
0.36771479 -0.19510983 1.0862105
0.37019876 -0.19504081 1.08
0.36772612 -0.185156 1.0862856
0.37190238 -0.18452908 1.0814545
0.36844549 -0.17486051 1.086
0.37346762 -0.17441706 1.0825651
0.36815119 -0.16644627 1.087
0.37482926 -0.16469592 1.084
0.37433007 -0.15631518 1.0864999
0.38022172 -0.15818748 1.087
0.20234023 0.057493847 1.087
0.18683028 0.068992265 1.0840001
0.19578715 0.065892413 1.0846498
0.20447791 0.067187488 1.086647
0.21288605 0.069183201 1.087
0.18520775 0.072225049 1.0812
0.19528207 0.074189149 1.0807999
0.20461696 0.074899189 1.0826665
0.21378453 0.075058162 1.0838259
0.22012837 0.073376127 1.087
-0.091481917 0.088623106 1.087
-0.08481136 0.088623106 1.087
-0.074567296 0.08790841 1.087
-0.065117344 0.087564297 1.087
-0.055469893 0.087422512 1.0856428
-0.044396076 0.087321348 1.085909
-0.034714121 0.088078573 1.087
-0.029541036 0.08767017 1.087
-0.00285092 0.088378519 1.0840001
0.0047646835 0.088623106 1.087
0.017152861 0.088623106 1.087
0.023346948 0.088623106 1.087
0.063846759 0.088623106 1.087
0.079093739 0.088623106 1.087
0.083858423 0.088623106 1.087
0.19851239 0.082687199 1.08
0.2031412 0.082581997 1.08
-0.10154069 0.096034832 1.087
-0.094513096 0.095692068 1.0859654
-0.084672332 0.095130444 1.0851998
-0.074997142 0.094923995 1.0828665
-0.0661183 0.094593786 1.0829998
-0.05484619 0.091919705 1.0824666
-0.044998106 0.091463357 1.0837272
-0.034982417 0.091631033 1.0843
-0.025144631 0.091163844 1.0842727
-0.01423198 0.093287915 1.0821999
-0.0044674929 0.093468353 1.0811428
0.0044968044 0.093582839 1.0821303
0.014786626 0.093308739 1.0824583
0.025567545 0.093199514 1.0838635
0.034886688 0.093245074 1.0842999
0.043997634 0.09337794 1.0832499
0.05512565 0.093639366 1.0826249
0.065304108 0.093445189 1.0822083
0.074675135 0.094232507 1.0824615
0.085312255 0.093151242 1.0812726
0.095405735 0.095621221 1.0833075
0.10493489 0.095437102 1.0827036
0.11530388 0.096211463 1.0838695
0.1245507 0.096474335 1.0837727
0.13410577 0.096751325 1.08415
0.1418896 0.094750792 1.0862501
-0.10458589 0.10440659 1.085409
-0.096736751 0.10420431 1.0811764
-0.088052399 0.1013076 1.08
-0.078584403 0.1013076 1.08
0.095626801 0.10130761 1.08
0.10509481 0.1013076 1.08
0.11456279 0.1013076 1.08
0.1252932 0.1013076 1.08
0.13160519 0.1013076 1.08
-0.1013076 0.1107756 1.08
-0.099413998 0.1107756 1.08
0.059088498 0.21834962 1.0813333
0.061542001 0.2187108 1.08
0.057143588 0.22572343 1.0864
0.062689096 0.22593413 1.0825882
0.065088019 0.23467392 1.083111
0.071641199 0.2360688 1.08
0.067044683 0.24346508 1.0848333
0.071010001 0.2423808 1.08
0.067658506 0.25062233 1.087
0.36256215 -0.37025577 1.097
0.35823452 -0.36208129 1.097
0.36381134 -0.36361894 1.0934738
0.35850051 -0.35493374 1.0959285
0.3628999 -0.35556924 1.0912778
0.35896647 -0.34499717 1.0956364
0.36120418 -0.34495956 1.09
0.35918394 -0.33517551 1.0955
0.36153141 -0.33440831 1.0907273
0.35894552 -0.32468423 1.09575
0.36235887 -0.32559022 1.0914286
0.35918391 -0.31500605 1.0955
0.36212265 -0.31460553 1.0913335
0.3592265 -0.30492833 1.0953637
0.36242419 -0.3050504 1.0908
0.35918391 -0.29483923 1.0955
0.36168194 -0.29479232 1.09
0.35892913 -0.28596616 1.095143
0.36077517 -0.28642002 1.090875
0.35828286 -0.27494672 1.0944287
0.36052161 -0.27452064 1.09
0.3577992 -0.2652899 1.0949376
0.36120418 -0.26469198 1.09
0.35800725 -0.25495827 1.0951667
0.36215976 -0.25543031 1.09
0.35701638 -0.24484155 1.0942354
0.36024863 -0.2494029 1.09
0.35766602 -0.23521048 1.0934376
0.36024866 -0.23283975 1.09
0.35741055 -0.22494176 1.0940589
0.36096528 -0.22384149 1.09
0.35899261 -0.21500988 1.0949167
0.36120418 -0.21500249 1.09
0.35870644 -0.20411453 1.0959091
0.36240178 -0.20511268 1.0910556
0.35843042 -0.19472297 1.0957143
0.36284554 -0.19502716 1.0911112
0.3582558 -0.18537116 1.0956
0.36323282 -0.1846296 1.0918823
0.35840714 -0.17548068 1.0960625
0.36331218 -0.17480019 1.0912858
0.35887155 -0.1650157 1.0965
0.36379814 -0.16440247 1.0921614
0.36578634 -0.15494186 1.0932502
0.37335351 -0.15193509 1.09
0.36636409 -0.14516068 1.0950358
0.37264329 -0.14641349 1.0916001
0.36535981 -0.13769843 1.097
0.37025577 -0.13608101 1.097
0.19971344 0.058289565 1.09
0.20692556 0.057477988 1.0927501
0.21363553 0.058114357 1.097
0.22023006 0.057702199 1.097
0.19971344 0.060200699 1.09
0.20523302 0.061835937 1.0919001
0.21493916 0.064326324 1.09396
0.22346807 0.06611193 1.0954616
-0.10097885 0.079821378 1.097
-0.094487347 0.079100095 1.097
-0.085139342 0.078942269 1.0966668
-0.075760916 0.079030186 1.0967001
-0.063664757 0.079436697 1.097
-0.054095816 0.079100102 1.097
-0.044518158 0.078145765 1.0960001
-0.035573293 0.078837842 1.0967001
-0.026286557 0.079500809 1.097
-0.016348956 0.079821378 1.097
0.21882476 0.0716675 1.09
0.22432673 0.07093592 1.0935
-0.12460928 0.086690687 1.097
-0.11364515 0.088175133 1.0962501
-0.10398982 0.086140878 1.09425
-0.095057935 0.084892772 1.0923914
-0.085205697 0.084471643 1.0920477
-0.075611733 0.083586082 1.0917778
-0.064953573 0.083899722 1.092158
-0.054127421 0.08298932 1.0920001
-0.045208193 0.083040372 1.0905715
-0.035611175 0.083871096 1.0913334
-0.024571588 0.085079864 1.0931429
-0.014992246 0.086283877 1.0942633
-0.0050165784 0.08642792 1.0954444
0.0047963755 0.084420338 1.0943501
0.014125461 0.084957018 1.0932175
0.024787648 0.085854322 1.0922222
0.035705868 0.086981557 1.0933751
0.045105986 0.0863671 1.0947001
0.054460011 0.086455032 1.0938947
0.06448219 0.085651472 1.0935652
0.074669421 0.085480325 1.09368
0.085309774 0.085689671 1.0934001
0.094980329 0.086849198 1.094353
0.10489546 0.086664192 1.094389
0.11489088 0.087452851 1.0948236
0.1253773 0.08640369 1.0957143
0.13541475 0.086432315 1.0955
0.14397855 0.087153636 1.0959285
0.15309289 0.088074602 1.0960001
-0.12213632 0.095208623 1.097
-0.11480258 0.094711728 1.0934286
-0.10639385 0.094061084 1.0904001
-0.093645535 0.090778835 1.09
-0.012422367 0.090778835 1.09
-0.0086000999 0.090778835 1.09
0.046440542 0.091161057 1.09
0.050645035 0.090778835 1.09
0.096512236 0.090778835 1.09
0.1060679 0.091161057 1.09
0.11453148 0.091597892 1.09
0.12494034 0.091495506 1.09
0.13488254 0.091834344 1.0912001
0.14346474 0.091817684 1.0910001
-0.11307538 0.1016086 1.09
-0.10925312 0.10097155 1.09
0.05530173 0.23521875 1.091091
0.060200702 0.23793609 1.09
0.048439838 0.24522397 1.0957143
0.054436117 0.24499682 1.0944349
0.062825941 0.2459829 1.0905715
0.04904687 0.25100458 1.097
0.055899408 0.25291619 1.0962501
0.063819781 0.25487408 1.0943333
0.35693678 -0.37596148 1.1069999
0.36157101 -0.37511632 1.103111
0.35657755 -0.36501065 1.1047646
0.36066678 -0.36903194 1.1010001
0.35545963 -0.35384834 1.1048331
0.35626847 -0.34455675 1.1047617
0.35607457 -0.33458418 1.1038946
0.35597301 -0.32531312 1.1038947
0.35573417 -0.31552613 1.1040454
0.35552546 -0.30489951 1.1041152
0.35406205 -0.2947337 1.1034999
0.35484502 -0.28556955 1.1049998
0.36002332 -0.28473696 1.1010001
0.35408503 -0.27504626 1.1047306
0.35313413 -0.26489368 1.1041249
0.34896788 -0.25487745 1.1064999
0.3534835 -0.25568277 1.1034998
0.34915486 -0.24545497 1.1066667
0.35341364 -0.24520318 1.1030474
0.34896541 -0.23544717 1.10675
0.35371307 -0.23484392 1.1023999
0.34893903 -0.22583437 1.1066668
0.35343772 -0.22505608 1.1027498
0.34887299 -0.21439816 1.1066153
0.35480532 -0.21487036 1.1032066
0.34850246 -0.2061242 1.1073333
0.35427478 -0.20469518 1.1045198
0.34871346 -0.19524068 1.108
0.35368511 -0.19500478 1.1042219
0.35394803 -0.1850187 1.1038569
0.35409698 -0.17480078 1.1042607
0.35395172 -0.16525945 1.1036451
0.35444903 -0.15495019 1.1047058
0.36057487 -0.15457149 1.101
0.35587326 -0.14464575 1.1056536
0.36098853 -0.14574671 1.101
0.3563371 -0.13467425 1.1059089
0.36403862 -0.13377811 1.101
0.37160584 -0.13416418 1.1010001
0.3559196 -0.12521051 1.1057497
0.36420754 -0.12469457 1.1013076
0.37101847 -0.12593317 1.105
0.35766268 -0.11626447 1.1064999
0.3628335 -0.115621 1.1036874
0.36085045 -0.10961358 1.1065
0.22296351 0.057912603 1.1010001
-0.10296275 0.068965614 1.108
-0.094870992 0.068277173 1.1058571
-0.084366716 0.068853572 1.1062
-0.074793696 0.068965614 1.108
-0.06702292 0.068965614 1.108
-0.055366758 0.068965614 1.108
-0.047595985 0.068965614 1.108
-0.032054439 0.068965614 1.108
0.22608186 0.063035645 1.101
0.23296662 0.064669073 1.101
-0.13190886 0.077124931 1.108
-0.12629759 0.077019468 1.1064999
-0.11468852 0.077428252 1.1068001
-0.10521805 0.075011946 1.1047724
-0.095530011 0.07376074 1.1034998
-0.084861286 0.073846452 1.102739
-0.074260481 0.073993899 1.1040454
-0.065278038 0.074786671 1.1053634
-0.055249617 0.074136518 1.1038095
-0.04591975 0.073338963 1.1040555
-0.035052672 0.073427275 1.1040432
-0.02451265 0.074776933 1.1043998
-0.015030232 0.075448081 1.1062499
-0.0051946114 0.076204404 1.106941
0.0045743217 0.076784231 1.1067141
0.013912115 0.078284286 1.107
0.024995079 0.07789731 1.10725
0.034372848 0.077200137 1.1067141
0.045591485 0.077601217 1.1064999
0.054935049 0.077815659 1.1079999
0.065912805 0.078124024 1.1079999
0.075033098 0.077133298 1.1067499
0.084147908 0.07679908 1.1069285
0.093317404 0.078063153 1.1071428
0.10781948 0.078679077 1.108
0.12680691 0.077960506 1.107
0.13446537 0.077744648 1.1069999
0.14473066 0.078679077 1.108
0.15517263 0.077950567 1.1079999
0.16499019 0.077291436 1.1079999
0.17192836 0.078679077 1.108
-0.1339711 0.084841669 1.104421
-0.12445672 0.08438205 1.1019999
-0.11529457 0.083743252 1.1026362
-0.10692382 0.081613868 1.101
-0.066599488 0.080112427 1.1010001
-0.02219983 0.080112427 1.1010001
-0.013140532 0.081937127 1.1021999
-0.0046585272 0.081473179 1.102818
0.0048260498 0.080112427 1.1010001
0.014490074 0.080170639 1.1018
0.024987483 0.081731193 1.1033334
0.034842238 0.082022466 1.1039999
0.045447279 0.081223175 1.1029999
0.055496428 0.081527382 1.1035453
0.064836882 0.080871873 1.1038572
0.074321166 0.080663972 1.101
0.085118197 0.081570335 1.1033331
0.095151782 0.082034282 1.104923
0.10476983 0.081798598 1.105769
0.1152425 0.082311973 1.1046665
0.12478617 0.081520751 1.1034545
0.13512939 0.08107765 1.101
0.14624681 0.082897812 1.1025383
0.15490389 0.083258562 1.1043633
0.16467808 0.082704797 1.1053528
0.17289971 0.080621772 1.108
-0.12313322 0.092522271 1.101
0.046330079 0.24998939 1.1010001
0.046007246 0.25595629 1.1048748
0.054321945 0.25711969 1.1026001
0.046948418 0.26258737 1.1079999
0.055202063 0.26499695 1.1064998
0.063454382 0.26488271 1.103857
0.056920912 0.27398449 1.1079999
0.062607706 0.27400804 1.1079999
0.059252147 0.28071919 1.108
0.34727046 -0.391415 1.1190001
0.35217544 -0.39239597 1.1190001
0.34737942 -0.38596502 1.1190001
0.35363472 -0.38469633 1.1142412
0.34825146 -0.37571916 1.1190001
0.35285422 -0.3744407 1.1147082
0.34773383 -0.36362168 1.1186001
0.35258505 -0.36569336 1.1153499
0.34860653 -0.35448194 1.117
0.35211632 -0.35560209 1.1135
0.34836984 -0.34509984 1.1183335
0.35205895 -0.34489253 1.1150951
0.34769088 -0.33367676 1.1190001
0.35196832 -0.33486146 1.1152499
0.34727043 -0.32470769 1.1190002
0.35187334 -0.3249976 1.1149499
0.34827021 -0.3151758 1.1176667
0.35185868 -0.31490478 1.1135715
0.34819731 -0.30516461 1.1157
0.352312 -0.30668885 1.1120001
0.34864381 -0.29551804 1.1153889
0.3509165 -0.29031256 1.115
0.34830454 -0.28497651 1.1170834
0.35144937 -0.28306678 1.114375
0.34719199 -0.27502561 1.1168094
0.35116789 -0.27546158 1.1142501
0.34624514 -0.26506808 1.1157142
0.34495452 -0.2547805 1.1154073
0.34535474 -0.24478358 1.1159999
0.34573987 -0.23464574 1.1160909
0.34590361 -0.22481482 1.1156666
0.34521824 -0.21508108 1.1149523
0.34489399 -0.20483032 1.1156086
0.34525412 -0.19467936 1.1143212
0.34614599 -0.18481055 1.1153998
0.35192207 -0.18424729 1.1120001
0.34598181 -0.17494875 1.1148665
0.35192207 -0.1774233 1.1120001
0.34597018 -0.16540232 1.1155483
0.34546697 -0.15508679 1.1158285
0.3459532 -0.14525931 1.1167498
0.35175446 -0.14466681 1.1125001
0.34696832 -0.13437714 1.1163461
0.35217953 -0.13578157 1.1128182
0.346367 -0.12445913 1.116655
0.35205695 -0.12440965 1.1124285
0.34650168 -0.11478619 1.1172856
0.35401532 -0.11428206 1.1134399
0.34666568 -0.10520799 1.1181111
0.35477927 -0.10457598 1.114862
0.36069134 -0.10263575 1.115
0.34716144 -0.096246019 1.1190001
0.35385829 -0.095121756 1.1161427
0.34825146 -0.085346133 1.1190001
0.35206938 -0.086467333 1.1166
0.34825146 -0.077498212 1.1190001
-0.13341464 0.059840389 1.1190001
-0.12458573 0.059840389 1.1190001
-0.11477582 0.059840389 1.1190001
-0.10463893 0.05951339 1.1190001
-0.094552152 0.058297601 1.1176667
-0.084865808 0.057119019 1.1170001
-0.075599052 0.057188764 1.1183333
-0.065726325 0.058859397 1.1190002
-0.05493544 0.059840385 1.1190001
-0.044144548 0.059840389 1.1190001
-0.03041069 0.059840389 1.1190001
-0.02844871 0.059840389 1.1190001
-0.14267954 0.066598326 1.1190001
-0.13494471 0.065512791 1.115423
-0.12464436 0.06574367 1.1156665
-0.11449002 0.065557301 1.1161999
-0.10470139 0.064696923 1.1141905
-0.094499886 0.064193726 1.1151111
-0.085025273 0.064500228 1.1147999
-0.075301103 0.064539939 1.1155
-0.065183751 0.064912073 1.1142726
-0.055466551 0.065156601 1.1147199
-0.045055673 0.065286711 1.1154613
-0.03486241 0.065458566 1.1158799
-0.024664255 0.065982163 1.1176087
-0.01534332 0.066482693 1.1171111
-0.0052469298 0.068227619 1.1161819
0.0041687693 0.068883426 1.1185
0.01079089 0.069650292 1.1190001
0.02550574 0.069650292 1.1190001
0.033026662 0.069650292 1.1190001
0.055916429 0.069650292 1.1190001
0.065726332 0.069650292 1.1190001
0.076517224 0.069650292 1.1190001
0.085346133 0.069650292 1.1190001
0.091232069 0.069650292 1.1190001
0.12850969 0.069650292 1.1190001
0.13439563 0.069650292 1.1190001
0.14322454 0.069650292 1.1190001
0.15793939 0.069650292 1.1190001
0.16712247 0.068871818 1.117
0.17458002 0.069018587 1.1178572
0.18148315 0.069650292 1.1190001
-0.14365479 0.075036846 1.1157858
-0.13635918 0.074517719 1.1126001
-0.12506457 0.073555835 1.1128002
-0.11614897 0.073125996 1.1121876
-0.10820872 0.072139144 1.1120001
-0.062390611 0.071164295 1.1120001
-0.059466053 0.071164295 1.1120001
-0.022482116 0.071356282 1.115
-0.012673093 0.071944177 1.1120001
-0.0041460851 0.07196743 1.1131251
0.0052397572 0.072533481 1.1140002
0.01488091 0.074188888 1.1158947
0.024097297 0.073786765 1.1152942
0.034781687 0.073242798 1.1140001
0.044974912 0.073327959 1.1153126
0.055566952 0.073379889 1.1143531
0.065153375 0.073943131 1.1147779
0.074934155 0.072977304 1.1145386
0.085321501 0.072533488 1.114
0.09484423 0.074502416 1.1153334
0.104366 0.075658321 1.1147895
0.11541333 0.076649494 1.1151178
0.12464837 0.07515242 1.1151876
0.13489813 0.073555999 1.1150626
0.14480188 0.074353389 1.11605
0.15443893 0.073592007 1.1146317
0.16485158 0.072858348 1.1126925
0.1749665 0.074490994 1.1131904
0.18257284 0.07302808 1.1156665
-0.14135373 0.080912828 1.1120001
-0.1362845 0.081302769 1.1120001
0.04670836 0.26851001 1.1178334
0.046695124 0.27487341 1.1190002
0.052189369 0.27621716 1.1149335
0.047578014 0.28301561 1.1190001
0.053871669 0.28556043 1.1173477
0.05493544 0.29135403 1.1190001
0.34618178 -0.39448833 1.1245
0.35146531 -0.39675215 1.123
0.34551811 -0.3846598 1.1248462
0.34598735 -0.37490311 1.1244
0.34552798 -0.36493808 1.1243848
0.34601805 -0.3548916 1.1245002
0.3458643 -0.34520802 1.1240001
0.34560844 -0.33575338 1.124154
0.34461617 -0.32473099 1.1247501
0.34505963 -0.31497052 1.124421
0.34461614 -0.30517709 1.1247501
0.34553134 -0.29467976 1.1242001
0.34437501 -0.2851359 1.1240587
0.34306115 -0.27504146 1.1245
0.34122229 -0.26509491 1.124125
0.34118083 -0.25539333 1.1248001
0.33858445 -0.24579453 1.126
0.34124994 -0.24594103 1.1246667
0.34236151 -0.23528603 1.1240001
0.34181827 -0.22446606 1.124154
0.3429291 -0.21546921 1.1248751
0.34120363 -0.20413105 1.1248751
0.34113783 -0.19471835 1.1243638
0.34108958 -0.18434678 1.1245
0.33919409 -0.17304672 1.1242858
0.34140801 -0.1759263 1.1236001
0.33911788 -0.16463055 1.1245
0.34144342 -0.16448414 1.1235
0.33881378 -0.15441887 1.1248001
0.34126648 -0.15404727 1.1240001
0.33853918 -0.14511079 1.1248463
0.34162036 -0.14275204 1.123
0.33858445 -0.13918486 1.126
0.34199932 -0.13536434 1.1247145
0.34108955 -0.12519808 1.1245
0.34206447 -0.11510189 1.1249287
0.34210533 -0.10549228 1.1246001
0.34393626 -0.095404953 1.1244999
0.34503147 -0.085765615 1.1244999
0.34546795 -0.075922653 1.1247368
-0.13128784 0.048369206 1.126
-0.12832646 0.048369206 1.126
-0.14424217 0.057024885 1.1254002
-0.13469815 0.055119105 1.1248
-0.1258924 0.055219326 1.1248333
-0.11520075 0.056346878 1.1246156
-0.10529792 0.056172352 1.124154
-0.096353248 0.054224785 1.1246365
-0.085651211 0.053162821 1.123
-0.075524963 0.052740894 1.123
-0.064504951 0.054538317 1.1243333
-0.05458517 0.056913599 1.1246364
-0.044381831 0.057311304 1.1250001
-0.034328114 0.056913592 1.1246365
-0.025453141 0.057024885 1.1254001
-0.018097321 0.05758239 1.126
-0.15281937 0.065191619 1.1256002
-0.14629632 0.063619167 1.1241666
-0.13881403 0.060054295 1.123
-0.12503107 0.060054295 1.123
-0.044302348 0.060054291 1.123
-0.035441879 0.060054295 1.123
-0.023299754 0.060710628 1.123
-0.013785847 0.062630028 1.1233001
-0.0047480264 0.064427502 1.1243638
0.0049277437 0.065049283 1.1242859
0.014990079 0.066853859 1.1241051
0.023835845 0.065936267 1.1245884
0.034278933 0.068009757 1.1243333
0.044373013 0.068037398 1.1248001
0.054018516 0.066989385 1.1237501
0.064360946 0.066634089 1.124154
0.075117275 0.068216853 1.1245
0.086094655 0.067033447 1.1245
0.095815279 0.068027817 1.1246365
0.1052963 0.068301775 1.124154
0.11489701 0.068329692 1.1246156
0.12532148 0.067402735 1.1245
0.13509223 0.066065259 1.1248001
0.14520878 0.066315889 1.1248751
0.15446721 0.066714026 1.1246667
0.16416444 0.065935038 1.1246876
0.17501801 0.064659692 1.1239376
0.18457197 0.065692246 1.1243042
0.1936401 0.065356217 1.1245883
0.20137385 0.06416323 1.126
-0.15205398 0.07237725 1.1248
-0.14865899 0.07482174 1.123
0.038395371 0.071868256 1.123
0.097036697 0.071422689 1.1237501
0.10484889 0.071868256 1.123
0.11420161 0.072852753 1.123
0.12345588 0.072655857 1.123
0.18705437 0.071868256 1.123
0.044302348 0.2687676 1.123
0.044302348 0.27546218 1.123
0.045229144 0.28526524 1.1238183
0.047292922 0.29460198 1.1239001
0.053901192 0.29608738 1.123
0.060054295 0.295349 1.123
0.048018683 0.30423036 1.1255001
0.052881151 0.3034471 1.1231765
0.052178323 0.31011644 1.123
0.33620691 -0.41302574 1.138
0.33774638 -0.40213475 1.1374286
0.34407714 -0.4044846 1.1349412
0.33789575 -0.39445591 1.1364616
0.34230152 -0.39546257 1.1313335
0.3376931 -0.38454887 1.1344445
0.34259832 -0.38529965 1.1303636
0.33727327 -0.37526035 1.1345717
0.3423509 -0.37499204 1.1309232
0.33772054 -0.36488047 1.1354285
0.34233075 -0.3654834 1.1318666
0.33780429 -0.35435528 1.1361539
0.34216943 -0.35539424 1.1313332
0.33812746 -0.34521821 1.1352501
0.3423509 -0.34509578 1.1309232
0.33873522 -0.33807245 1.1353334
0.341997 -0.33504108 1.1333997
0.33820221 -0.3252328 1.138
0.34149832 -0.32536265 1.1337646
0.33860198 -0.31395406 1.136
0.34160924 -0.31515434 1.1316667
0.33738095 -0.30478826 1.13525
0.34200433 -0.30415186 1.1313334
0.33760428 -0.29467261 1.1360002
0.34213859 -0.29514924 1.1312308
0.33835512 -0.28498739 1.1344446
0.3417685 -0.28431177 1.13
0.3385289 -0.27502424 1.1340001
0.3417685 -0.27440542 1.13
0.33809683 -0.26517606 1.1337895
0.3417685 -0.26251784 1.13
0.33766374 -0.25454351 1.1342
0.34099001 -0.25947055 1.1340001
0.33716282 -0.24461921 1.1337777
0.3417685 -0.24171454 1.13
0.33782363 -0.23498841 1.1334001
0.3417685 -0.23527542 1.13
0.33679864 -0.22484094 1.1338401
0.3417685 -0.2288363 1.13
0.33652002 -0.21533042 1.133852
0.3417685 -0.21496744 1.13
0.33681652 -0.20527238 1.1333601
0.3417685 -0.20902362 1.13
0.33681652 -0.19533543 1.1333601
0.3369759 -0.18531519 1.134154
0.33571154 -0.17548144 1.1331304
0.33408982 -0.16527854 1.1327499
0.33385068 -0.15503149 1.1341429
0.33347037 -0.14495881 1.1340002
0.32822576 -0.13069171 1.138
0.33457547 -0.13495003 1.1330858
0.32822576 -0.12769878 1.138
0.33471188 -0.1250035 1.1329714
0.3346785 -0.11505999 1.1328572
0.33517992 -0.10487384 1.132919
0.33663955 -0.094481342 1.1335384
0.3417685 -0.093119532 1.13
0.3367686 -0.08444228 1.1332
0.3417685 -0.084203832 1.13
0.33705398 -0.074569345 1.13416
0.34286919 -0.073196791 1.13
0.33768028 -0.066678047 1.1352308
0.34338656 -0.064450406 1.1329476
0.33978724 -0.058447365 1.13
0.3415879 -0.058757707 1.136
-0.13069171 0.038908221 1.138
-0.12570348 0.038908221 1.138
-0.11539447 0.038243119 1.138
-0.10674819 0.038908221 1.138
-0.092781141 0.038908221 1.138
-0.084799968 0.038908221 1.138
-0.16062111 0.048884686 1.138
-0.15419182 0.047776192 1.138
-0.14416051 0.047568735 1.1369091
-0.13467798 0.044848308 1.1340001
-0.12469738 0.044556156 1.1332594
-0.11435696 0.044746958 1.1343203
-0.1044589 0.044762537 1.1348003
-0.094443582 0.044729568 1.1340002
-0.084465846 0.044714276 1.1335202
-0.075070269 0.045771137 1.1337895
-0.064275451 0.046047591 1.1337776
-0.055029728 0.046076629 1.1344446
-0.044831682 0.047818311 1.1364
-0.034867138 0.047818311 1.1364
-0.025796292 0.048314605 1.138
-0.017957639 0.048884686 1.138
-0.16364641 0.055801589 1.1366668
-0.15461721 0.054401342 1.1322857
-0.14601658 0.052824933 1.1308572
-0.13730177 0.050918557 1.13
-0.1241122 0.051937491 1.13
-0.1152521 0.052105062 1.1305715
-0.10500713 0.05171106 1.13
-0.093862504 0.051265277 1.13
-0.085052952 0.051088374 1.13
-0.073765069 0.050941933 1.132
-0.064391166 0.050522305 1.13
-0.054215074 0.052374829 1.1302859
-0.044657398 0.052841965 1.132
-0.034857519 0.052425921 1.1314286
-0.024282847 0.052732442 1.1321334
-0.014457987 0.054220714 1.1340001
-0.0051667392 0.055504937 1.1355242
0.0046293158 0.056287672 1.1358824
0.014945915 0.056934487 1.1365715
0.024554199 0.056312002 1.136353
0.03455485 0.057591423 1.1380001
0.044994622 0.05727848 1.1363335
0.05451664 0.056934483 1.1365715
0.064181931 0.058528602 1.138
0.074823499 0.058861151 1.138
0.085243367 0.057974357 1.138
0.093905903 0.058035329 1.1365
0.1040878 0.058861151 1.138
0.11472937 0.058861148 1.138
0.12470584 0.058861148 1.138
0.1346823 0.058861148 1.138
0.14532386 0.058528602 1.138
0.15441641 0.057780754 1.1364
0.16508344 0.057062928 1.1366667
0.17515866 0.056725372 1.1352502
0.18504904 0.056704301 1.1348572
0.19448473 0.056620892 1.136
0.20355873 0.057976477 1.1374286
-0.16370347 0.06377624 1.1317142
-0.15805106 0.063490592 1.13
-0.013868866 0.060428634 1.13
-0.0047059469 0.06119835 1.1305001
0.0057053468 0.061251827 1.1315
0.014885801 0.06152622 1.1320001
0.025907056 0.061624408 1.1317778
0.035050496 0.063154288 1.1315553
0.044631097 0.062481198 1.1313335
0.054481573 0.062425684 1.1328571
0.064772047 0.062322777 1.1339999
0.07465557 0.063275859 1.1337779
0.084216096 0.062846914 1.1335001
0.095002182 0.062958255 1.1332501
0.10498377 0.063140452 1.1333331
0.11549196 0.063093707 1.1339999
0.12466024 0.062326994 1.1337144
0.13496283 0.06152622 1.132
0.1448867 0.06152622 1.1320001
0.15518737 0.061406985 1.1314546
0.16591774 0.061404269 1.1317778
0.17468168 0.060758844 1.13
0.1853824 0.060471416 1.1308
0.19573687 0.061086383 1.1317142
0.20340104 0.061437853 1.1340001
-0.16147323 0.070334964 1.13
-0.15701538 0.070830286 1.13
0.24342579 0.076818794 1.138
0.038771458 0.28929475 1.1340001
0.041324314 0.287954 1.1313334
0.037506189 0.29562104 1.1339999
0.04250706 0.29487306 1.1314286
0.036735252 0.30469251 1.1376668
0.043482356 0.30474755 1.1318824
0.038908221 0.31326106 1.138
0.044372834 0.31432742 1.1349999
0.050611719 0.31359595 1.132
0.045801047 0.32169569 1.1380001
0.32871231 -0.42071143 1.149
0.32898092 -0.41560784 1.149
0.33353344 -0.41404951 1.1440911
0.34309486 -0.4122569 1.1409999
0.32904807 -0.40526631 1.149
0.33426774 -0.40539238 1.1453335
0.34109434 -0.40911317 1.141
0.32848847 -0.39608881 1.149
0.3337135 -0.39493987 1.1457621
0.32938382 -0.38579211 1.149
0.33311144 -0.38500705 1.1456668
0.32904807 -0.37605491 1.149
0.33327755 -0.37440598 1.1456319
0.32938382 -0.36967543 1.149
0.33451575 -0.36477414 1.1470872
0.33376774 -0.3552649 1.1473159
0.33440503 -0.34491661 1.1464547
0.3355844 -0.33465776 1.1451432
0.33600485 -0.32503176 1.1475457
0.34028256 -0.32321823 1.1450001
0.33561736 -0.31513429 1.1467144
0.33416742 -0.30416292 1.1460669
0.32938382 -0.29412869 1.149
0.3331767 -0.29433686 1.1458892
0.32938382 -0.28808492 1.149
0.3344216 -0.28496742 1.1466002
0.33537892 -0.27484968 1.1465557
0.33392704 -0.26446483 1.1465558
0.33391917 -0.25593561 1.1460001
0.32938382 -0.2417496 1.149
0.33339742 -0.24522403 1.145889
0.32938382 -0.23671314 1.149
0.33353624 -0.23535606 1.1461431
0.32938382 -0.22059651 1.149
0.33280942 -0.22556193 1.1474618
0.33229735 -0.21496224 1.1462309
0.32938382 -0.20447989 1.149
0.33255902 -0.20529483 1.1460669
0.32938382 -0.19440697 1.149
0.33263686 -0.19529417 1.1463336
0.32755238 -0.18341836 1.149
0.3325595 -0.18550579 1.1455716
0.32837653 -0.17426117 1.149
0.33141613 -0.17597002 1.1446365
0.32654208 -0.16389985 1.1487501
0.33065251 -0.16468321 1.1444286
0.3253192 -0.15458731 1.1479567
0.33024472 -0.15558642 1.1450001
0.32497841 -0.14481793 1.1465002
0.33024472 -0.14655237 1.1450001
0.32566142 -0.13525273 1.145667
0.33024472 -0.13751832 1.1450001
0.3262704 -0.12536383 1.1463916
0.32732141 -0.11565825 1.1461112
0.33024472 -0.11342751 1.1450001
0.32706773 -0.10611033 1.1462002
0.33066815 -0.10120503 1.1430001
0.32717139 -0.096208848 1.1477693
0.33177575 -0.095119834 1.1438572
0.32712609 -0.085130729 1.1486924
0.33194 -0.085241161 1.1439337
0.32661375 -0.075294927 1.149
0.33263683 -0.075371414 1.1463336
0.3278729 -0.06723661 1.149
0.33410212 -0.064648911 1.1457275
0.33684003 -0.057230409 1.1486667
0.34162092 -0.056881055 1.1450001
-0.13296229 0.029211409 1.149
-0.12893312 0.029211409 1.149
-0.1144953 0.029211409 1.149
-0.10576545 0.029211408 1.149
-0.095692553 0.029211408 1.149
-0.088641524 0.029211409 1.149
-0.17023201 0.039284311 1.149
-0.16411769 0.038259931 1.1485001
-0.15481357 0.037193082 1.1467144
-0.1446127 0.035555288 1.1470002
-0.13530801 0.035213303 1.1448184
-0.12523763 0.034350593 1.1446192
-0.11571167 0.033378646 1.1452502
-0.10524562 0.034755532 1.1443045
-0.095592 0.034766503 1.1446524
-0.085335791 0.034129161 1.1452003
-0.075275145 0.035551049 1.1463336
-0.065298595 0.035553519 1.1474349
-0.055570878 0.035542239 1.1470872
-0.045293372 0.036567807 1.1481112
-0.035247903 0.037260611 1.1487334
-0.025539292 0.037989877 1.1486365
-0.019138509 0.039284311 1.149
-0.17420289 0.045516994 1.1478237
-0.1654512 0.045119777 1.1437829
-0.15515299 0.043040648 1.1417999
-0.1453259 0.042868998 1.1409999
-0.1383716 0.041678194 1.141
-0.072582304 0.041547425 1.142
-0.065908931 0.041603468 1.1415714
-0.054348364 0.041344773 1.1409999
-0.0448271 0.042963427 1.1435716
-0.035117924 0.043140713 1.1444668
-0.024715349 0.043586172 1.1438236
-0.015060258 0.044979658 1.1454003
-0.0055851466 0.046483595 1.1472223
0.0050364505 0.049357209 1.149
0.01510935 0.048349917 1.149
0.024658442 0.047803324 1.1480001
0.034751505 0.048601739 1.149
0.045999575 0.049021441 1.149
0.054663971 0.048964169 1.1476667
0.065473855 0.049357209 1.149
0.077561326 0.049357209 1.149
0.085619651 0.049357209 1.149
0.09166339 0.049357209 1.149
0.15612996 0.049357209 1.149
0.16505167 0.048781611 1.149
0.17437264 0.048732519 1.1478571
0.18500559 0.049021441 1.149
0.19476928 0.048394624 1.1479092
0.20484924 0.048218906 1.1485556
0.21589582 0.048685681 1.149
0.2249857 0.048442747 1.1485556
0.2316767 0.048349917 1.149
-0.1735374 0.053159136 1.1442001
-0.16714495 0.052044194 1.1416667
-0.0030008301 0.05101411 1.141
0.00588331 0.051765539 1.1450001
0.015042374 0.052140273 1.1438
0.025902867 0.051662337 1.1427143
0.035559013 0.052832309 1.1437691
0.044667188 0.052695706 1.1450001
0.055109549 0.052104503 1.143
0.065568238 0.053854711 1.1447779
0.075335994 0.054236911 1.1458004
0.08507064 0.053446643 1.145
0.095806368 0.054169226 1.1443334
0.10549317 0.054437287 1.1450002
0.11521407 0.054587409 1.1461111
0.12554969 0.055444919 1.1470001
0.13537644 0.055069104 1.1450001
0.14456776 0.054008633 1.1452003
0.15480524 0.05315914 1.1442
0.16473545 0.052346203 1.1446667
0.17535526 0.052103806 1.1430001
0.18537554 0.052103806 1.1430001
0.19539584 0.052103806 1.1430001
0.20527682 0.053069685 1.1422309
0.21549267 0.05432744 1.1457275
0.22572637 0.054605421 1.1439093
0.23490289 0.054452743 1.1460668
0.24411973 0.078893363 1.1432858
0.23857228 0.085657097 1.1475716
0.24547738 0.08516939 1.1429203
0.25215495 0.085537449 1.1418889
0.23777723 0.095693424 1.1476668
0.24558151 0.095123582 1.1441669
0.25345588 0.095621742 1.1462309
0.23931597 0.10155921 1.1470001
0.24445193 0.10261077 1.1475002
0.25444144 0.10213921 1.149
0.036412347 0.31525469 1.1432223
0.036646008 0.324469 1.1463335
0.044001557 0.32674274 1.1436667
0.05101411 0.32709047 1.141
0.039284311 0.3313984 1.149
0.04542667 0.33242747 1.1473335
0.31849122 -0.43107891 1.1570001
0.32153416 -0.43107891 1.1570001
0.31838077 -0.4248448 1.1566
0.32362816 -0.42437777 1.1541427
0.31849125 -0.41485006 1.1569999
0.32463735 -0.41553229 1.1549999
0.31892595 -0.40499684 1.1570002
0.324599 -0.40532258 1.154739
0.31950554 -0.39557832 1.1570001
0.32442129 -0.39473885 1.1548181
0.32530364 -0.38481307 1.154739
0.32501546 -0.37419581 1.1546665
0.32540908 -0.3644664 1.1560767
0.33053049 -0.36489755 1.153
0.32590345 -0.35524029 1.1569998
0.33053049 -0.35478964 1.153
0.32660571 -0.34537029 1.1569998
0.33086744 -0.34535551 1.153
0.32584628 -0.33563316 1.156652
0.33128858 -0.33457369 1.153
0.32655227 -0.32580492 1.1569998
0.331429 -0.32469034 1.153
0.32642862 -0.31549045 1.1556665
0.33142897 -0.31390849 1.153
0.32680744 -0.30463684 1.1558233
0.33128861 -0.30475518 1.153
0.32578328 -0.29465351 1.155727
0.32641572 -0.28553 1.1563332
0.33133915 -0.28362954 1.153
0.32660568 -0.27424225 1.1569998
0.33165598 -0.27604389 1.1533999
0.3264924 -0.26464167 1.1565998
0.33086744 -0.26651338 1.153
0.32725111 -0.25495896 1.1569999
0.33128861 -0.25497347 1.153
0.32726097 -0.24413781 1.1563333
0.33053049 -0.24764518 1.153
0.32778156 -0.23544517 1.1562728
0.33053049 -0.23416789 1.153
0.32788518 -0.22298469 1.1566364
0.33053049 -0.22641845 1.153
0.32761997 -0.21503228 1.1570001
0.33053049 -0.2152997 1.153
0.32631233 -0.20554093 1.1561577
0.32603934 -0.19542214 1.1549999
0.32441258 -0.18566924 1.1552221
0.32401249 -0.17517112 1.1549999
0.31869408 -0.16289711 1.1570001
0.32271671 -0.16560334 1.1545384
0.31849125 -0.15518841 1.1569999
0.32075945 -0.1546519 1.153
0.31892592 -0.14591478 1.1570002
0.32075945 -0.14387006 1.153
0.31849122 -0.13490233 1.1569999
0.32118064 -0.13468866 1.153
0.31860393 -0.12521011 1.1570001
0.3215445 -0.12436972 1.1533999
0.31950554 -0.11461627 1.1570001
0.32336682 -0.11512671 1.1544999
0.31892595 -0.10360383 1.1570002
0.32317317 -0.10403514 1.1551331
0.31821463 -0.093961366 1.1569999
0.3235766 -0.094186649 1.1552498
0.31815314 -0.085539579 1.1570001
0.32367596 -0.085503273 1.1542499
0.31950554 -0.075058445 1.1570001
0.32340819 -0.075889595 1.1542307
0.31950554 -0.069986932 1.1570001
0.32491389 -0.06581419 1.155
0.33053049 -0.061658595 1.153
0.3280257 -0.058221012 1.1570001
0.33366469 -0.055200942 1.1538571
0.33558449 -0.049529035 1.153
-0.18156029 0.029414797 1.1570001
-0.17502369 0.028513197 1.1570001
-0.16496262 0.028123867 1.1569999
-0.15518841 0.026371887 1.1569998
-0.14512321 0.02624538 1.1559998
-0.13512315 0.025806231 1.1558233
-0.12512681 0.026670711 1.1553998
-0.11415865 0.027344611 1.1552857
-0.10314558 0.026206587 1.1547778
-0.095009796 0.025928292 1.1553999
-0.084604949 0.027525658 1.1551818
-0.075939499 0.028603222 1.155
-0.066053033 0.028467996 1.1552222
-0.055925589 0.028467996 1.1552222
-0.046364054 0.028628647 1.1559999
-0.036514919 0.029414797 1.1570001
-0.18374494 0.03674899 1.1569998
-0.17528965 0.035256464 1.1546665
-0.16522779 0.033650193 1.1544999
-0.15470694 0.032356367 1.1533999
-0.1475763 0.031334698 1.153
-0.075135887 0.031334698 1.153
-0.066712573 0.031334698 1.153
-0.052561425 0.031334698 1.153
-0.04548585 0.031912297 1.153
-0.035388757 0.032356363 1.1533999
-0.025313167 0.033580866 1.1549999
-0.015653826 0.037301157 1.1548462
-0.0054327035 0.038217172 1.1555455
0.0040572132 0.039557829 1.1570001
0.039557829 0.039557829 1.1570001
0.043615043 0.039557829 1.1570001
0.20996079 0.039557829 1.1570001
0.21198939 0.039557829 1.1570001
0.23227547 0.039557829 1.1570001
-0.18310229 0.044430476 1.153923
-0.17840563 0.043464258 1.153
-0.01212956 0.041442662 1.153
-0.0036104892 0.042329598 1.1535714
0.0050569647 0.044496622 1.1536
0.015179483 0.043512184 1.1543332
0.025770156 0.043208536 1.1545384
0.035659861 0.043991081 1.1544117
0.045347799 0.044385031 1.1548946
0.0555146 0.045938209 1.1551818
0.066172846 0.046082128 1.1553332
0.074783549 0.046429642 1.1549999
0.085052446 0.04657555 1.155
0.095037229 0.047263738 1.1553334
0.10432877 0.048617832 1.1554
0.11441815 0.048600644 1.155
0.12495818 0.047780331 1.1561428
0.13549259 0.047623165 1.155857
0.14519562 0.047125015 1.1553528
0.15482788 0.046418253 1.1551051
0.16504698 0.044549134 1.1549999
0.17499025 0.04419481 1.1545554
0.18533231 0.04455765 1.1552222
0.19553493 0.043562446 1.1556665
0.20566629 0.043562446 1.1556666
0.21511042 0.045786247 1.1549999
0.22453636 0.043762118 1.1546469
0.23549597 0.04500756 1.1544735
0.2435132 0.045504518 1.1565293
0.094004087 0.05155063 1.153
0.10006887 0.05155063 1.153
0.11826321 0.05155063 1.153
0.12500185 0.051887561 1.153
0.13342516 0.05155063 1.153
0.2395588 0.05155063 1.153
0.24416773 0.051669855 1.1556667
0.23848577 0.079269081 1.1543332
0.24140421 0.07708706 1.1570001
0.22945084 0.087939307 1.153
0.23419203 0.087258391 1.1537273
0.23430289 0.095071577 1.1536666
0.25775313 0.098047279 1.153
0.24807125 0.10530695 1.155
0.25600061 0.10544128 1.1552222
0.03335629 0.32850891 1.153
0.036599226 0.33462545 1.1543332
0.043088693 0.33804318 1.1538
0.038543526 0.34182021 1.1570001
0.044395275 0.34525329 1.1569998
0.044774245 0.35457143 1.1570002
0.04564365 0.36007768 1.1570001
0.30771926 -0.43498808 1.1667143
0.31393281 -0.43319139 1.1626667
0.30816823 -0.42810175 1.1678572
0.31330457 -0.42482793 1.1635
0.31370038 -0.41512343 1.1639566
0.31410217 -0.40493801 1.1646801
0.31475678 -0.39556158 1.1647333
0.32061014 -0.39185685 1.161
0.31648359 -0.38494134 1.1655003
0.32119176 -0.38633162 1.1610001
0.31573492 -0.37500605 1.1655715
0.32094941 -0.37625042 1.1610001
0.31633025 -0.36531484 1.164
0.32196724 -0.36471525 1.1610001
0.31688759 -0.35506079 1.1653638
0.32409975 -0.35492489 1.1610001
0.31710294 -0.34513164 1.1661766
0.32295892 -0.34582046 1.1610001
0.31811783 -0.33510739 1.1662308
0.32119176 -0.33398709 1.1610001
0.31769297 -0.32484168 1.1647145
0.32227564 -0.3244963 1.1610001
0.31820339 -0.31584162 1.1665385
0.32344028 -0.31420869 1.1631052
0.31753483 -0.30388826 1.1676667
0.32247648 -0.30470151 1.1617274
0.31761178 -0.29455951 1.167316
0.32137349 -0.29414704 1.1610001
0.31893989 -0.28620338 1.1670001
0.32276559 -0.283694 1.1626667
0.32297841 -0.27603552 1.1641581
0.32163647 -0.26513946 1.1647333
0.31872004 -0.25210655 1.169
0.32367587 -0.25480717 1.16356
0.31903741 -0.24397486 1.1676668
0.32326856 -0.24531183 1.1640003
0.31872004 -0.23058525 1.169
0.32371125 -0.23465014 1.1633333
0.31872004 -0.22443631 1.169
0.32333323 -0.22550227 1.1635
0.31887874 -0.21372549 1.1683334
0.32388613 -0.21527995 1.1628182
0.31924897 -0.20514244 1.1667777
0.32162791 -0.2045798 1.1610001
0.31919608 -0.19540636 1.1670001
0.32173839 -0.19446871 1.1614001
0.31777114 -0.18494295 1.1655332
0.32061014 -0.18422361 1.161
