# .PCD v0.7 - Point Cloud Data file format
VERSION 0.7
FIELDS x y z
SIZE 4 4 4
TYPE F F F
COUNT 1 1 1
WIDTH 1483
HEIGHT 1
VIEWPOINT 0 0 0 1 0 0 0
POINTS 1483
DATA ascii
0.3050997 -0.41430208 1.3450874
0.31258994 -0.41266584 1.3430001
0.30857664 -0.40588331 1.3463334
0.31340921 -0.40413368 1.3440002
0.30787626 -0.39420781 1.3490001
0.31439936 -0.39528233 1.3442634
0.32142019 -0.39206198 1.3430001
0.30748206 -0.38790047 1.3490001
0.31501645 -0.38537088 1.3450003
0.32357869 -0.3836242 1.3430003
0.3308391 -0.38028836 1.3430001
0.31570458 -0.37574768 1.3475885
0.32432342 -0.37419268 1.3442634
0.33293217 -0.37322414 1.3430002
0.31717959 -0.36590365 1.3490001
0.32425386 -0.36468136 1.3454549
0.33437118 -0.36498263 1.3430003
0.32499129 -0.35509762 1.3466003
0.33437121 -0.3555637 1.3430003
0.3281495 -0.34564281 1.3484
0.33451897 -0.34511998 1.3436003
0.34093079 -0.34395832 1.3430002
0.3280597 -0.33846682 1.3490001
0.33501983 -0.3350237 1.3456252
0.34214178 -0.33413571 1.3430002
0.33685482 -0.3263292 1.3473637
0.3429392 -0.32391292 1.344286
0.3469094 -0.31605607 1.3471254
0.35271654 -0.31382015 1.3445001
0.3394129 -0.30866468 1.3490001
0.34679389 -0.30484468 1.3468826
0.35438639 -0.30493706 1.3430003
0.34914157 -0.2979717 1.3470001
0.3548809 -0.29436177 1.3439476
0.35543591 -0.2851935 1.3461432
0.36359122 -0.28460082 1.3430003
0.35694665 -0.27847582 1.3460001
0.36422938 -0.27518025 1.3450004
0.36520532 -0.26524347 1.345286
0.37086946 -0.26137465 1.3430001
0.36698544 -0.25598484 1.3470001
0.37190515 -0.25335824 1.3442001
0.36779585 -0.24953352 1.3490001
0.37385151 -0.24479182 1.3457004
0.37665913 -0.23621637 1.3450001
0.38970727 -0.22958584 1.3430001
0.39206198 -0.22958584 1.3430001
-0.083628364 -0.1931055 1.3490001
-0.076476313 -0.19119078 1.3490001
-0.094482049 -0.18259212 1.3472002
-0.084754668 -0.1835037 1.3490001
-0.07716617 -0.18508056 1.3490001
0.40832907 -0.18234439 1.3454001
0.41207716 -0.18131396 1.3430001
-0.090656973 -0.17660451 1.3430001
-0.084632166 -0.17469352 1.3446002
-0.078053139 -0.17502826 1.3490001
0.40684277 -0.17385826 1.3436002
0.41246963 -0.17385735 1.3430002
-0.083510704 -0.16541976 1.3451819
0.40509003 -0.1644814 1.3437502
0.41325456 -0.16558009 1.3430003
-0.082868375 -0.15749259 1.344
-0.075242944 -0.154891 1.3468183
-0.06458316 -0.15446316 1.3464288
-0.054320019 -0.15469749 1.3470001
-0.044992208 -0.1545236 1.3473637
-0.035437934 -0.15475403 1.3475002
-0.024835091 -0.15279494 1.3490001
-0.015374103 -0.15019317 1.3490001
0.39772984 -0.15335926 1.34825
0.40474376 -0.15573223 1.3452108
0.41207719 -0.15541196 1.3430002
-0.052981351 -0.14952514 1.3430001
-0.044739805 -0.14952514 1.3430001
-0.0353209 -0.14952514 1.3430001
-0.025061021 -0.14817958 1.3430002
-0.014159919 -0.14573179 1.3460001
-0.0047208499 -0.14288788 1.3470001
0.0047265482 -0.14294092 1.3475002
0.013705807 -0.14249918 1.3478
0.024046674 -0.14112638 1.3490001
0.03193083 -0.14073217 1.3490001
0.31547531 -0.14060697 1.3478
0.39629838 -0.14406255 1.3462003
0.4046399 -0.14498201 1.3435458
0.41194636 -0.14507732 1.3430002
-0.0023547267 -0.1377515 1.3430001
0.0047094533 -0.1377515 1.3430001
0.013735905 -0.1377515 1.3430001
0.025607653 -0.13686848 1.3430002
0.036041047 -0.13518234 1.346231
0.044878207 -0.13463596 1.3471253
0.05429383 -0.13456164 1.3463752
0.064889885 -0.13388139 1.3458239
0.075117528 -0.13298717 1.3472
0.0844393 -0.13174424 1.3490001
0.095398277 -0.13205959 1.3490001
0.10525347 -0.1324538 1.3490001
0.11660667 -0.13174424 1.3490001
0.18685448 -0.13127118 1.3490001
0.19631547 -0.13127118 1.3490001
0.20577647 -0.13127118 1.3490001
0.21523744 -0.13127118 1.3490001
0.22593512 -0.13147077 1.3470001
0.23539659 -0.13232455 1.3463335
0.24540734 -0.13232437 1.3436668
0.25427958 -0.13260219 1.3475001
0.26516896 -0.13212781 1.347
0.27552736 -0.13354729 1.346231
0.28495663 -0.13345586 1.3453078
0.29477918 -0.13383327 1.3450001
0.30491257 -0.13545524 1.3455001
0.31471622 -0.13671684 1.3456668
0.38970727 -0.13657415 1.3430001
0.39606503 -0.13586771 1.3430002
0.4054054 -0.1361817 1.3430002
0.41089979 -0.13657415 1.3430001
0.048271898 -0.1283326 1.3430001
0.077705979 -0.1283326 1.3430001
0.085684814 -0.1277388 1.3450001
0.093862571 -0.12756915 1.3455715
0.10478534 -0.1283326 1.3430001
0.11538161 -0.1283326 1.3430001
0.12512705 -0.12630968 1.3465
0.13446794 -0.12621589 1.3455001
0.14413048 -0.12691362 1.3454001
0.15562034 -0.12670301 1.3465
0.1653218 -0.12635659 1.3470001
0.17463902 -0.12744191 1.3460002
0.18468745 -0.12727922 1.3456666
0.19458646 -0.12766458 1.3452501
0.20462219 -0.12764326 1.344
0.21498653 -0.12786165 1.3430001
0.22448392 -0.12794015 1.3430001
0.23429531 -0.1283326 1.3430001
0.25578216 -0.12627222 1.3430002
0.26412186 -0.12794015 1.3430001
0.27197093 -0.1283326 1.3430001
-0.16247615 -0.021192539 1.3430001
-0.16247614 -0.015305723 1.3430001
-0.15688366 -0.012656655 1.3430002
-0.14151907 -0.012009105 1.3430001
-0.1377515 -0.012950997 1.3430001
-0.16256753 -0.0047101108 1.3437501
-0.15592726 -0.0044781882 1.3454002
-0.14447929 -0.0040366738 1.3430003
-0.1377515 -0.00353209 1.3430001
-0.16271812 0.0035408565 1.3450001
-0.15518217 0.0040513268 1.3468572
-0.14491923 0.0046544294 1.3465297
-0.15334682 0.011432026 1.3490001
-0.14388584 0.01064361 1.3490001
0.2472463 0.40854508 1.3430001
0.25313312 0.40736771 1.3430001
0.24752115 0.41489744 1.3445001
0.25501689 0.41490287 1.3430002
0.26372939 0.41796398 1.3430001
0.24697971 0.4251633 1.3468183
0.25507581 0.42544192 1.3458002
0.26333401 0.42511752 1.3470001
0.25492039 0.43410081 1.3479091
0.2631337 0.43224883 1.3490001
0.18943101 -0.49919242 1.3590001
0.1963146 -0.49733913 1.3590001
0.20462351 -0.49581331 1.3566316
0.21452303 -0.4959079 1.3553636
0.22522125 -0.4953447 1.355
0.23443381 -0.49409151 1.3540001
0.24254502 -0.49181643 1.3540001
0.20491907 -0.48966128 1.3590001
0.21494074 -0.48559648 1.3589998
0.22513853 -0.48482144 1.3587914
0.23495778 -0.4841868 1.3561876
0.24333636 -0.48429874 1.3540001
0.25520644 -0.48073769 1.3540001
0.22596698 -0.47735026 1.3590001
0.23594996 -0.47421348 1.3581176
0.24463458 -0.47472286 1.3546251
0.25520644 -0.47429389 1.3540001
0.2658895 -0.47242865 1.3540001
0.27182454 -0.47242865 1.3540001
0.23730321 -0.46475038 1.3590001
0.24482149 -0.46510202 1.356059
0.25549686 -0.46545893 1.3548334
0.26559681 -0.46505731 1.3542942
0.27340722 -0.46543849 1.3540001
0.23788089 -0.45524338 1.3590001
0.24558981 -0.45558432 1.3584443
0.25396752 -0.45488057 1.3566667
0.26486453 -0.45555419 1.3554286
0.27398273 -0.45591843 1.3540001
0.23708661 -0.44915402 1.3590001
0.24631988 -0.44766474 1.3590001
0.25376606 -0.4455798 1.3590001
0.26576066 -0.44634891 1.3569999
0.2746495 -0.44429463 1.354278
0.2836946 -0.44275349 1.3540001
0.2546325 -0.4352906 1.3590001
0.26806274 -0.43485731 1.3590001
0.27476132 -0.43415093 1.3567997
0.28416941 -0.43373221 1.3540001
0.25512764 -0.42464545 1.3590001
0.27657267 -0.42668781 1.3590001
0.28440663 -0.42499605 1.355786
0.25614884 -0.41817787 1.3590001
0.28789121 -0.41517884 1.3570001
0.29393733 -0.4137553 1.3544546
0.28871349 -0.40586686 1.3590001
0.29534397 -0.40556639 1.3584443
0.30392018 -0.40483171 1.3550526
0.28831637 -0.39911565 1.3590001
0.29563493 -0.39605206 1.359
0.30313724 -0.39447102 1.3543848
0.29713267 -0.38529554 1.3590001
0.30475333 -0.38387343 1.3556665
0.29903889 -0.37528786 1.3590001
0.30625904 -0.37470266 1.3577499
0.31336975 -0.37331361 1.3540001
0.30646577 -0.36491871 1.3586154
0.31477657 -0.36489838 1.357
0.3156088 -0.3549442 1.3575712
0.32345933 -0.35076046 1.3540001
0.31648067 -0.34634739 1.3576365
0.32340389 -0.34413853 1.3549092
0.31714803 -0.3376399 1.3590001
0.32423368 -0.33482704 1.3577498
0.3313424 -0.33253163 1.3571252
0.32644087 -0.32763225 1.3590001
0.33312511 -0.32390666 1.357125
0.34067091 -0.32167882 1.3540001
0.32763225 -0.31690973 1.3590001
0.33464006 -0.31501368 1.357
0.34278116 -0.31482056 1.3540001
0.33754119 -0.30779302 1.3573335
0.34293333 -0.30327243 1.3545001
0.34619033 -0.29596874 1.3585835
0.35016695 -0.29319063 1.3540001
0.34574136 -0.28569537 1.3589998
0.35095832 -0.28409025 1.3540001
0.34709165 -0.2762039 1.3590001
0.35473135 -0.27458131 1.3559047
0.35701931 -0.26505208 1.3572353
0.36168841 -0.26264846 1.3556668
0.35758719 -0.25444683 1.3590001
0.36311096 -0.25469905 1.3552501
0.35860839 -0.2490005 1.3590001
0.3650786 -0.24497397 1.3564999
0.3715331 -0.24214935 1.3540001
0.35852015 -0.23729934 1.3556668
0.36630949 -0.23835668 1.3577502
0.37272012 -0.23740134 1.3540001
-0.095474549 -0.19213463 1.3556668
-0.085860156 -0.19427343 1.3540001
-0.074439436 -0.19669513 1.3565001
-0.067909233 -0.19777074 1.3590001
-0.09241879 -0.18840736 1.3573335
-0.086733669 -0.1883148 1.3552501
-0.079529449 -0.18873405 1.3540001
-0.075057566 -0.17036878 1.3590001
-0.075296283 -0.16395368 1.3557647
-0.064216711 -0.16173317 1.3565001
-0.054703124 -0.16173317 1.3565001
-0.044696324 -0.16262534 1.3560002
-0.035572425 -0.16295065 1.3567275
-0.024489682 -0.16216141 1.3590001
-0.015011514 -0.1613142 1.3590001
-0.070033394 -0.15787189 1.3540001
-0.043919247 -0.15787189 1.3540001
-0.023909705 -0.15719362 1.3540001
-0.014913267 -0.15562743 1.3551112
-0.0047600809 -0.15355013 1.3577501
0.0042493283 -0.15242955 1.3568573
0.013105291 -0.15130652 1.3590001
0.29903889 -0.15130652 1.3590001
0.30499586 -0.15130652 1.3590001
0.31333557 -0.15130652 1.3590001
-0.01068306 -0.14837584 1.3540001
-0.0047480268 -0.14837584 1.3540001
0.0047480268 -0.14837584 1.3540001
0.015035417 -0.1475845 1.3540001
0.025687277 -0.14617041 1.3555385
0.035513051 -0.14410926 1.3544546
0.045157537 -0.14355215 1.3555001
0.054783538 -0.14382386 1.3558183
0.064215392 -0.14365824 1.3565001
0.07358139 -0.14291346 1.3568573
0.085780069 -0.14177541 1.3590001
0.095311202 -0.14177541 1.3590001
0.10563657 -0.14256968 1.3590001
0.11476408 -0.14357731 1.3580002
0.12430168 -0.14336394 1.3590001
0.13224429 -0.14177541 1.3590001
0.19538796 -0.14177541 1.3590001
0.20491907 -0.14177541 1.3590001
0.21393962 -0.14279661 1.3590001
0.22606626 -0.14266896 1.3590001
0.23606542 -0.14279661 1.3590001
0.24463208 -0.14256968 1.3590001
0.2542426 -0.14272854 1.3590001
0.26538211 -0.14326464 1.3590001
0.27500686 -0.14405386 1.3579999
0.28563559 -0.14427996 1.358091
0.29570302 -0.14511131 1.3589998
0.30521816 -0.14488101 1.3570553
0.31464452 -0.1461315 1.357182
0.32048389 -0.14654097 1.3590001
0.062911354 -0.13887978 1.3540001
0.075798862 -0.13820149 1.3540001
0.086272679 -0.13665962 1.3555001
0.094554111 -0.13708314 1.3550001
0.10445659 -0.13769278 1.3540001
0.11513965 -0.136871 1.3540001
0.12653242 -0.13519754 1.3561429
0.13536459 -0.13553731 1.356143
0.14515765 -0.13513348 1.3572142
0.15489545 -0.13502733 1.3561429
0.16444069 -0.13534857 1.3563528
0.17529702 -0.13575289 1.3568127
0.18512569 -0.13604602 1.356143
0.19490872 -0.13628106 1.3556668
0.20435254 -0.13663399 1.35525
0.2147883 -0.13621944 1.3547693
0.22501463 -0.13707238 1.3556668
0.23502731 -0.13769278 1.3540001
0.24452338 -0.13769278 1.3540001
0.25635976 -0.13725732 1.3547144
0.26533669 -0.13788165 1.3545556
0.27360505 -0.13828628 1.3540001
0.28488159 -0.13887978 1.3540001
0.29437765 -0.13887978 1.3540001
0.30506071 -0.13887978 1.3540001
-0.16261992 0.0083090467 1.3540001
-0.15470654 0.0083090467 1.3540001
-0.16251248 0.013932305 1.3549092
-0.15480296 0.014650705 1.3548335
-0.14576463 0.015239178 1.3558183
-0.16083765 0.02025363 1.3590001
-0.15488073 0.025019195 1.3589997
-0.14553468 0.025335794 1.3575715
-0.15309361 0.034848157 1.3590001
-0.14892375 0.035741702 1.3590001
0.24689738 0.40951729 1.3540001
0.24571037 0.41545233 1.3540001
0.24491905 0.42534408 1.3540001
0.26945052 0.42376137 1.3540001
0.1747109 -0.49900305 1.365
0.18521483 -0.49660975 1.3649999
0.19409662 -0.49453554 1.3649999
0.19505395 -0.48942986 1.365
0.20672128 -0.48793408 1.3649999
0.21260481 -0.48304772 1.3650001
0.216115 -0.47889933 1.365
0.22576797 -0.47666559 1.3649999
0.23155178 -0.47207844 1.365
0.23334675 -0.46340272 1.3649999
0.22856015 -0.45353034 1.3650001
0.23286808 -0.45472699 1.3649999
0.25967306 -0.45113704 1.365
0.22856015 -0.44754711 1.365
0.23518775 -0.44561407 1.3649999
0.2437747 -0.4446409 1.3649999
0.25648201 -0.44435605 1.3649999
0.26398098 -0.44252118 1.365
0.24531326 -0.43677726 1.3649999
0.2540887 -0.43558058 1.3649999
0.26445964 -0.43558058 1.3649999
0.25472692 -0.42481083 1.3649999
0.26565629 -0.4248108 1.3649999
0.27522951 -0.42361408 1.3649999
0.2831274 -0.4209815 1.365
0.25727975 -0.41763085 1.365
0.2680496 -0.41763085 1.365
0.27695796 -0.4144398 1.3649999
0.28360605 -0.41404083 1.3649999
0.27702445 -0.4044677 1.3649999
0.28428987 -0.40446776 1.3649999
0.27587381 -0.39553884 1.3649999
0.28480271 -0.39489448 1.3649999
0.29317921 -0.39369786 1.3649999
0.27881944 -0.38891125 1.365
0.28544706 -0.38596565 1.3649999
0.29357812 -0.38492242 1.3649999
0.28839266 -0.37933806 1.365
0.29537311 -0.37634644 1.3649999
0.30155581 -0.37215814 1.365
0.29706836 -0.36527741 1.3649999
0.30315137 -0.36418048 1.3649999
0.31312343 -0.36418048 1.3650001
0.29796585 -0.35779834 1.365
0.30584967 -0.35470122 1.3649999
0.3077566 -0.34452641 1.3649999
0.31392118 -0.34450224 1.3649999
0.30813736 -0.33805364 1.365
0.31527123 -0.33441767 1.3649999
0.32189885 -0.33147204 1.365
0.31663361 -0.32692477 1.3649999
0.32514691 -0.32497597 1.3649999
0.32581517 -0.31580681 1.3649999
0.33147204 -0.31232566 1.365
0.33546087 -0.30534518 1.3649999
0.34104526 -0.30275244 1.3650001
0.33728433 -0.29317924 1.3649999
0.34290668 -0.29424295 1.3649999
0.33647624 -0.28512904 1.3649999
0.34152392 -0.28408474 1.365
0.33785418 -0.27802166 1.3650001
0.34397042 -0.27483061 1.3649999
0.34774649 -0.26637429 1.365
0.35181507 -0.26565629 1.3649999
0.34822515 -0.25488645 1.365
0.35357484 -0.25488645 1.3649999
0.35567099 -0.24504733 1.3649999
0.36019167 -0.24531324 1.3650001
-0.073952973 -0.20271251 1.365
-0.067411281 -0.20303161 1.3650001
-0.065017976 -0.19904278 1.3650001
-0.071798995 -0.17112094 1.365
-0.068209052 -0.17112094 1.365
-0.055045899 -0.17112094 1.365
-0.044276047 -0.17112094 1.3650001
-0.035899498 -0.17112094 1.365
-0.07060235 -0.16872765 1.365
-0.064448141 -0.16736005 1.3649999
-0.055045903 -0.167531 1.3649999
-0.04619069 -0.16824898 1.365
-0.035899498 -0.16872765 1.365
-0.02512965 -0.16753101 1.3649999
-0.014359799 -0.16633436 1.3649999
-0.0059832497 -0.16154775 1.3650001
-0.0051854835 -0.15835668 1.3649999
0.0039888332 -0.15755892 1.3649999
0.0143598 -0.15496618 1.3649999
0.02444585 -0.15265834 1.3649999
0.032309551 -0.15197454 1.365
0.26924625 -0.15197454 1.365
0.27443174 -0.15277232 1.3649999
0.28520158 -0.15277232 1.3649999
0.29450887 -0.15357007 1.3649999
0.30035916 -0.15436785 1.365
0.03709615 -0.14958125 1.3650001
0.045472704 -0.14958125 1.365
0.055045899 -0.14958125 1.365
0.064619094 -0.14898293 1.365
0.074910291 -0.14718795 1.365
0.084962144 -0.14479464 1.365
0.095732003 -0.14479464 1.365
0.10450744 -0.14639018 1.3649999
0.11463907 -0.14862393 1.365
0.12462255 -0.14650415 1.3649999
0.13426413 -0.14383732 1.365
0.14411084 -0.14205945 1.3649999
0.15476674 -0.14160357 1.3649999
0.16513771 -0.14240135 1.365
0.1754289 -0.14192268 1.365
0.18428409 -0.14359799 1.3649999
0.19425619 -0.14439575 1.3649999
0.20642214 -0.14539297 1.365
0.21611497 -0.14670929 1.365
0.22417246 -0.14639018 1.3649999
0.23403056 -0.14752984 1.3649999
0.24411659 -0.14718795 1.3649999
0.25568423 -0.14519353 1.3649999
0.26525742 -0.14758684 1.3649999
0.27522951 -0.14958125 1.365
0.28480271 -0.14958125 1.365
0.29198259 -0.14958125 1.365
-0.16322306 0.026086971 1.3649999
-0.14359799 0.02752295 1.365
-0.16370173 0.035181511 1.3649999
-0.15735948 0.036796987 1.3649999
-0.14718795 0.035899501 1.365
-0.16553658 0.042680517 1.3650001
-0.1531712 0.044276047 1.3649999
-0.14862393 0.044754714 1.365
0.086853124 -0.49578652 1.376
0.094828248 -0.4951213 1.3744998
0.10474256 -0.49463034 1.3718002
0.11525796 -0.49459845 1.3703532
0.12476628 -0.49495241 1.3728001
0.13462491 -0.49581712 1.3752
0.14441818 -0.49500787 1.3753333
0.15421546 -0.49455109 1.3749411
0.16457671 -0.49499893 1.3734739
0.17514402 -0.49434999 1.3735455
0.18402445 -0.49380302 1.3705001
0.19576843 -0.49122262 1.3700001
0.08805941 -0.48854879 1.376
0.094761044 -0.48640427 1.3760002
0.10520115 -0.48543739 1.3752173
0.11578765 -0.48554426 1.3750525
0.12284885 -0.4853622 1.3753334
0.14596149 -0.48854879 1.376
0.15524068 -0.4852083 1.3760002
0.16381787 -0.48478475 1.3745883
0.17491253 -0.48492995 1.3759999
0.18570107 -0.48520842 1.3741053
0.19480437 -0.48513561 1.371667
0.20383251 -0.48470274 1.3700001
0.21098153 -0.48241505 1.3700002
0.095779695 -0.47600335 1.376
0.10548365 -0.47554764 1.3759999
0.11540207 -0.47729009 1.3760002
0.12344402 -0.47729006 1.376
0.15722023 -0.47809425 1.376
0.16453843 -0.47696838 1.3760002
0.1753649 -0.47603354 1.376
0.18628617 -0.47493497 1.3760002
0.19505535 -0.47583351 1.3749411
0.20417565 -0.47560918 1.3700002
0.21492611 -0.47553533 1.3713336
0.22482303 -0.47347069 1.3723999
0.1085664 -0.46924812 1.376
0.17732511 -0.46924815 1.376
0.18660429 -0.4659076 1.3760002
0.1955303 -0.46574268 1.3752941
0.20462117 -0.46581203 1.373
0.2139349 -0.4657011 1.3726668
0.22538002 -0.46611932 1.3730001
0.23179944 -0.46840301 1.3700001
0.18818176 -0.45959777 1.376
0.19541952 -0.45959777 1.376
0.20506988 -0.45718518 1.3760003
0.21550456 -0.45673642 1.3742353
0.22429073 -0.45548213 1.3712634
0.21833909 -0.44994742 1.376
0.22567607 -0.44534177 1.3731766
0.23432973 -0.44222024 1.37075
0.24140769 -0.44077924 1.3700001
0.21713279 -0.43788448 1.376
0.22579429 -0.43496197 1.3743999
0.23470053 -0.43471381 1.3744211
0.24351951 -0.43356127 1.3720002
0.22557685 -0.42582154 1.376
0.2360314 -0.42501733 1.3760002
0.24449612 -0.42475489 1.373273
0.25101596 -0.42276374 1.3700001
0.23703665 -0.41677433 1.376
0.24500363 -0.41507822 1.3754286
0.2543844 -0.4150624 1.3714119
0.26434079 -0.41559675 1.3731768
0.27287474 -0.41483694 1.37
0.24616426 -0.40587756 1.376
0.25575212 -0.40558729 1.3746667
0.26524755 -0.40570205 1.3737502
0.27313349 -0.40609697 1.3705001
0.24777265 -0.39614671 1.3760002
0.25566351 -0.39555538 1.375625
0.26619428 -0.39698157 1.3750001
0.27263135 -0.39370477 1.3710909
0.24849643 -0.38963273 1.376
0.25653839 -0.38681805 1.3760003
0.26900342 -0.38963273 1.376
0.27586037 -0.38602716 1.3733752
0.28362393 -0.38257656 1.3717144
0.25935307 -0.37998241 1.376
0.27684432 -0.37937927 1.376
0.28507668 -0.37518734 1.3748571
0.29200673 -0.37352931 1.3720001
0.28782159 -0.36405936 1.376
0.29307905 -0.3643567 1.3722501
0.30145937 -0.36151102 1.3700001
0.29618937 -0.35476649 1.374125
0.30226007 -0.35270345 1.3700002
0.29658443 -0.3469196 1.3752501
0.30236533 -0.34551212 1.3725716
0.30499366 -0.33514801 1.3728424
0.31106764 -0.33268625 1.3700002
0.30685192 -0.32806584 1.3748
0.31417549 -0.32412294 1.3724
0.32067591 -0.32067591 1.3700001
0.31656486 -0.31535989 1.375625
0.32283774 -0.31395009 1.37
0.33028418 -0.31106764 1.3700001
0.31886351 -0.30479011 1.376
0.32477474 -0.30432242 1.3721001
0.33211023 -0.30375215 1.3706
0.3278102 -0.29524028 1.3760002
0.33368561 -0.2957567 1.3718463
0.32931808 -0.28468522 1.376
0.33268988 -0.28454337 1.373
0.33661172 -0.27555034 1.3734286
0.34259218 -0.27191043 1.3712001
0.3380034 -0.26707333 1.376
0.34424245 -0.26480594 1.3730003
0.33919942 -0.2566604 1.3745
0.34413341 -0.25483701 1.3716003
0.34540385 -0.24615036 1.3728236
0.35331166 -0.24324282 1.3713335
-0.077202775 -0.22075167 1.376
-0.073706634 -0.21372646 1.3713847
-0.06485261 -0.21435992 1.3714117
-0.058002271 -0.21428189 1.3742858
-0.074635647 -0.20674932 1.37
-0.06425529 -0.20627749 1.37
-0.058218259 -0.20758474 1.3740001
-0.055087391 -0.18335658 1.376
-0.047045439 -0.18215029 1.376
-0.070860967 -0.17414983 1.3700001
-0.063977562 -0.17462306 1.3718001
-0.055335075 -0.17614473 1.372143
-0.045962151 -0.17636323 1.3713847
-0.034893524 -0.17567392 1.3725001
-0.024153922 -0.17481758 1.3723077
-0.014932789 -0.17412916 1.3736002
-0.0048251734 -0.17008735 1.376
0.0048251729 -0.17008735 1.376
0.013269226 -0.17008735 1.376
-0.066056833 -0.16934569 1.3700001
-0.0108093 -0.16934569 1.3700001
-0.0044037891 -0.16534227 1.37
0.0048164069 -0.1649054 1.3730001
0.014466754 -0.16514386 1.3750001
0.024298193 -0.16457288 1.3760002
0.033534952 -0.16212583 1.3760002
0.046080403 -0.16091953 1.376
0.054765712 -0.16091953 1.376
0.06272725 -0.16043702 1.376
0.073583893 -0.16043702 1.376
0.094492972 -0.16043702 1.376
0.10374123 -0.16043702 1.376
0.12304192 -0.16043702 1.376
0.25814676 -0.16043702 1.376
0.27479362 -0.16140206 1.376
0.28468522 -0.16104016 1.376
0.0072061997 -0.15973744 1.3700001
0.01513302 -0.15925702 1.3700001
0.024020668 -0.15733539 1.37
0.035446197 -0.15556708 1.3723079
0.045737457 -0.15527609 1.3730001
0.055306714 -0.15510558 1.3715001
0.065265685 -0.1548802 1.3727691
0.074878208 -0.15433718 1.3731998
0.08425644 -0.15407418 1.3729999
0.094530195 -0.15376928 1.3726667
0.10527793 -0.15437905 1.3733335
0.1152551 -0.15488018 1.3727695
0.12522878 -0.15412633 1.3735002
0.13477586 -0.15297991 1.3760003
0.1447552 -0.15199295 1.3760002
0.15440555 -0.15199296 1.3760002
0.16418993 -0.15239505 1.3760002
0.17511357 -0.1525961 1.3760003
0.18576917 -0.15199295 1.3760002
0.19541952 -0.15199295 1.3760002
0.20546138 -0.15265098 1.3754002
0.21442254 -0.15304135 1.373
0.22476228 -0.15292443 1.3735002
0.23494555 -0.1538963 1.3743638
0.24498187 -0.15462382 1.3743334
0.25531402 -0.15415701 1.37375
0.2650294 -0.15387106 1.3736924
0.27557003 -0.15695471 1.3713335
0.28630069 -0.15742151 1.3707501
0.2926518 -0.15813605 1.3700002
0.084072337 -0.1477271 1.3700001
0.094881631 -0.1477271 1.3700001
0.1261085 -0.1477271 1.3700001
0.13523635 -0.14724669 1.3700001
0.14518522 -0.14638756 1.3715001
0.15513687 -0.14672017 1.3717999
0.16583137 -0.14660695 1.37075
0.17535087 -0.14652608 1.37
0.18495913 -0.1477271 1.3700001
0.1945674 -0.1477271 1.3700001
0.20489629 -0.14724669 1.3700001
0.25221699 -0.1477271 1.3700001
0.26062423 -0.1477271 1.3700001
-0.16694364 0.022819633 1.3700001
-0.16454157 0.039634101 1.3700001
-0.16265644 0.045675207 1.3710002
-0.15681727 0.046424586 1.3718002
-0.14652607 0.043237198 1.3700001
-0.15400346 0.052674811 1.376
0.077955045 -0.4954266 1.3870001
0.083440013 -0.49354634 1.3822861
0.12833172 -0.49153471 1.381
0.13611464 -0.49136177 1.3809999
0.14487763 -0.49032405 1.381
0.077090383 -0.48175412 1.3870001
0.085074767 -0.48425293 1.3852358
0.093222111 -0.48386705 1.381
0.12765913 -0.48386705 1.381
0.13562481 -0.48364288 1.3819478
0.14528118 -0.4842706 1.3810003
0.15181886 -0.48354426 1.381
0.18281217 -0.48063862 1.381
0.079035886 -0.47462061 1.3870001
0.085755527 -0.47461411 1.386143
0.094155319 -0.47411707 1.3836253
0.10193898 -0.47240606 1.381
0.11598659 -0.47286418 1.382091
0.12361992 -0.47420517 1.3856155
0.13508485 -0.47704315 1.3859092
0.14575486 -0.47491235 1.3855003
0.15482226 -0.47416967 1.3833337
0.16396238 -0.4725031 1.3820003
0.17167395 -0.47289032 1.381
0.18160149 -0.47579592 1.381
0.086331509 -0.46813563 1.3870001
0.096798606 -0.46739101 1.386
0.10482173 -0.46594015 1.3855885
0.11233088 -0.46599692 1.3859092
0.1209857 -0.46631169 1.3870001
0.14761472 -0.46448785 1.3870001
0.15559682 -0.46496862 1.3866253
0.16543508 -0.4646014 1.3853335
0.17416741 -0.46466109 1.3813531
0.18200506 -0.46449628 1.381
0.14793897 -0.45435503 1.3870001
0.15581393 -0.45500076 1.3866473
0.16455676 -0.45557103 1.3870001
0.175046 -0.45509249 1.3851055
0.1841232 -0.45498094 1.3832108
0.19502941 -0.45467931 1.381783
0.20581503 -0.45279309 1.381
0.21380548 -0.45255095 1.381
0.14874959 -0.44787002 1.3870001
0.15442395 -0.44770789 1.3870001
0.18692954 -0.44581041 1.3864
0.19459085 -0.44549143 1.3863337
0.20499392 -0.44514933 1.3829094
0.21550044 -0.44552901 1.3810003
0.22252235 -0.44383401 1.381
0.18742797 -0.43513161 1.3870001
0.19459401 -0.43522251 1.3862503
0.20527864 -0.43586361 1.3825002
0.21515453 -0.43532467 1.3810003
0.22215918 -0.43523824 1.381
0.18695027 -0.42496988 1.3870001
0.19559379 -0.42571309 1.3850003
0.20550752 -0.42531258 1.3822002
0.21525551 -0.42480382 1.381286
0.22512215 -0.4248201 1.3810003
0.23231541 -0.42440942 1.381
0.17874269 -0.41949815 1.3870001
0.18482238 -0.41949815 1.3870001
0.20792517 -0.41949815 1.3870001
0.21546397 -0.4165799 1.3870001
0.22435966 -0.41477045 1.3834003
0.23435239 -0.41370553 1.3810003
0.21643671 -0.40490693 1.3870001
0.22454539 -0.40441141 1.3838699
0.23487128 -0.40436599 1.3810003
0.24196236 -0.40384716 1.3809999
0.26271683 -0.40557668 1.381
0.2170447 -0.39578739 1.3870001
0.22507861 -0.39580673 1.3858001
0.23559445 -0.39476359 1.383667
0.24302965 -0.39401415 1.3815001
0.26483551 -0.3931672 1.381
0.23953952 -0.38788378 1.3870001
0.24569328 -0.38643423 1.3840002
0.25345048 -0.38430586 1.3820912
0.26634884 -0.3849951 1.3810003
0.27421829 -0.3837845 1.381
0.24683513 -0.37294516 1.3870001
0.25458369 -0.37581706 1.3828752
0.26523471 -0.3758378 1.3834003
0.27550229 -0.37495673 1.3813753
0.284509 -0.37652045 1.381
0.24710533 -0.36518627 1.3870001
0.25439644 -0.3651652 1.382895
0.26522854 -0.3656652 1.3847897
0.27511743 -0.36553541 1.3825003
0.28428885 -0.36573446 1.3810002
0.25731131 -0.35571486 1.3858001
0.26411849 -0.35644442 1.3858001
0.27515393 -0.35586599 1.3850005
0.28487366 -0.35539705 1.3822002
0.29177308 -0.35593894 1.381
0.25777858 -0.34897381 1.3870001
0.26629013 -0.34573135 1.3870001
0.27504489 -0.34556916 1.3870003
0.28500634 -0.34596583 1.3852003
0.29375267 -0.3437503 1.3825002
0.268722 -0.33924633 1.3870001
0.27571365 -0.33772638 1.3870001
0.28452918 -0.3355985 1.3870003
0.29463595 -0.33465403 1.3831003
0.30206382 -0.33233073 1.381
0.28678733 -0.32673955 1.3870001
0.29495502 -0.32530716 1.3846004
0.30474457 -0.32394251 1.3810003
0.3111439 -0.32203999 1.381
0.28817698 -0.31979135 1.3870001
0.29509953 -0.31819388 1.3864001
0.30485141 -0.3146717 1.3838575
0.31295991 -0.3141706 1.381
0.30612859 -0.3047412 1.3857144
0.31388077 -0.30404618 1.3830005
0.307024 -0.29608059 1.3870001
0.31471452 -0.29470307 1.3855718
0.32345244 -0.29479977 1.3810002
0.31627458 -0.28528464 1.3862503
0.32450327 -0.28531829 1.3823338
0.31979135 -0.27601761 1.3870001
0.32527423 -0.2751672 1.3841769
0.33239797 -0.27509266 1.381
0.31979135 -0.26385826 1.3870001
0.32583404 -0.26522669 1.3859415
0.333823 -0.26479745 1.3813336
0.34020016 -0.26271683 1.381
0.31918338 -0.25473872 1.3870001
0.32587102 -0.25534672 1.3870003
0.33486798 -0.25479311 1.3840003
0.34020016 -0.25182074 1.381
0.31857541 -0.24926701 1.3870001
0.32668164 -0.24845637 1.3870001
0.33593813 -0.24721369 1.3864
0.34429634 -0.24331075 1.3823333
0.3523069 -0.24092466 1.381
0.34988555 -0.23850331 1.381
0.3523069 -0.23850331 1.381
-0.061744511 -0.18160149 1.381
-0.053748727 -0.18631242 1.383
-0.045152888 -0.18644699 1.3846
-0.03475067 -0.18280707 1.3842729
-0.024287699 -0.18337131 1.3852001
-0.014322802 -0.18280657 1.3846
-0.066587217 -0.17796947 1.381
-0.012106767 -0.17796947 1.381
-0.004745556 -0.17581619 1.3848182
0.0048532267 -0.17471878 1.3840001
0.014809178 -0.17479505 1.3846002
0.024283668 -0.17363173 1.3850002
0.03402343 -0.1737553 1.386
0.044016905 -0.17290618 1.3870001
0.24343053 -0.17290619 1.3870001
0.25413075 -0.17144707 1.3870001
0.036562435 -0.16658911 1.3810002
0.045915257 -0.16614929 1.3815457
0.056109298 -0.16634868 1.383182
0.06600336 -0.16428487 1.3840001
0.075225011 -0.16440612 1.3840002
0.084870107 -0.16368155 1.3830003
0.094839022 -0.16494133 1.3834
0.10487598 -0.16581289 1.3846
0.11424353 -0.1627579 1.3834002
0.12402554 -0.16354348 1.3870001
0.13437133 -0.16211458 1.3844286
0.14591239 -0.16171958 1.3870001
0.15563989 -0.16171958 1.3870001
0.1656841 -0.16256192 1.3852857
0.17471616 -0.16258572 1.3840001
0.18407433 -0.16256192 1.3852857
0.19551933 -0.16221452 1.3852857
0.20550063 -0.16426119 1.3838003
0.21485947 -0.1647663 1.3826002
0.22552967 -0.16338524 1.3846
0.23553696 -0.16361143 1.3842728
0.24482234 -0.16483481 1.3825002
0.25436714 -0.16513716 1.3830001
0.26503578 -0.16432866 1.3830005
0.27432638 -0.1651824 1.3834001
0.284509 -0.16344135 1.381
0.12833172 -0.15859865 1.381
0.1363222 -0.15811437 1.381
0.1452812 -0.15738797 1.381
0.15496661 -0.15738797 1.381
0.16447906 -0.15756093 1.3809999
0.17353033 -0.15779154 1.381
0.18402287 -0.15738797 1.381
0.19491895 -0.15738797 1.3810002
0.20500791 -0.15779153 1.381
0.21671112 -0.15859865 1.381
0.22518586 -0.15859865 1.381
0.23366059 -0.15859865 1.381
0.26392752 -0.15859865 1.381
-0.16465202 0.049637742 1.381
-0.14891323 0.049637742 1.381
-0.17144707 0.059580896 1.3870001
-0.1647878 0.055738136 1.3821254
-0.15511033 0.056362852 1.3814619
-0.14853393 0.055045318 1.3850001
-0.17193344 0.066390142 1.3870001
-0.16532366 0.065643817 1.3866253
-0.15559682 0.065643825 1.3866253
-0.14956021 0.065660581 1.3870001
-0.17271666 0.075577267 1.3816
-0.16527665 0.075347967 1.3862503
-0.15555882 0.075144887 1.3870003
-0.14907384 0.075144887 1.3870001
-0.17436035 0.082409285 1.3852857
-0.16415146 0.081467755 1.3870001
-0.15280271 0.082278378 1.3870001
-0.14956021 0.082683697 1.3870001
0.054710921 -0.4955211 1.3967371
0.065171398 -0.49534476 1.3940002
0.073625974 -0.49504313 1.3920001
0.055108145 -0.48498166 1.3970003
0.065897278 -0.48568735 1.3920001
0.074883275 -0.48668584 1.3920001
0.056570251 -0.47878832 1.3968002
0.064854652 -0.47603473 1.3959131
0.074815005 -0.47583091 1.3920001
0.083388537 -0.47470447 1.3920001
0.12827167 -0.47399044 1.3935001
0.13361308 -0.47370461 1.3936365
0.1403368 -0.47348416 1.3920001
0.068357386 -0.46649832 1.3974
0.075757667 -0.46553794 1.3938003
0.085249126 -0.46431386 1.392706
0.094615474 -0.46364027 1.3920001
0.10407586 -0.46145532 1.3920001
0.11615228 -0.46316692 1.3920001
0.12518939 -0.46433601 1.3936001
0.1348886 -0.46573204 1.3960003
0.14240195 -0.46475416 1.3920001
0.067918286 -0.45610511 1.3973334
0.075966559 -0.45579249 1.3976251
0.085790604 -0.45591575 1.3980001
0.095387466 -0.45493472 1.3950001
0.10494752 -0.45395911 1.3920001
0.11471008 -0.45395905 1.3920001
0.12461072 -0.45444822 1.3935002
0.13455704 -0.45506135 1.3953753
0.14255558 -0.45406991 1.3920001
0.15742128 -0.45029807 1.3920001
0.16718383 -0.45212856 1.3920001
0.17572609 -0.45029807 1.3920001
0.18182768 -0.45029807 1.3920001
0.068223953 -0.44624731 1.398
0.075985953 -0.44611114 1.3980001
0.085767925 -0.4459905 1.3976252
0.095569268 -0.44599047 1.3976252
0.1052309 -0.44538856 1.3957502
0.1150191 -0.44539049 1.3957502
0.12464392 -0.44479379 1.3938751
0.13473949 -0.44587049 1.3972502
0.14419074 -0.44479054 1.3938752
0.15529887 -0.44421354 1.3935002
0.16514823 -0.44528529 1.3954287
0.17470099 -0.44550312 1.3958826
0.18247046 -0.44408917 1.3932002
0.069858059 -0.43998322 1.3980001
0.076721311 -0.439493 1.3980001
0.086570516 -0.43753204 1.3979999
0.095523149 -0.43594602 1.3980001
0.10559339 -0.43533891 1.3980002
0.11520451 -0.43508092 1.3980002
0.12378359 -0.43508089 1.3980001
0.13631172 -0.4372597 1.398
0.14481194 -0.43533891 1.3980002
0.15442309 -0.43562561 1.3980002
0.16422772 -0.43562561 1.3980002
0.17442007 -0.4349249 1.3960001
0.18312533 -0.43535495 1.3926001
0.082113862 -0.42527625 1.3980001
0.10785104 -0.42405066 1.398
0.11520452 -0.42405063 1.3980001
0.12378359 -0.42405066 1.3979999
0.14666107 -0.42691037 1.3980001
0.15442309 -0.42772743 1.3980001
0.16729167 -0.42466348 1.3980001
0.17467876 -0.42489031 1.3954738
0.18396324 -0.42528152 1.3920001
0.1952512 -0.4210104 1.3920001
0.20379345 -0.4210104 1.3920001
0.10907662 -0.4166972 1.3980001
0.11446917 -0.41743255 1.3980001
0.12460063 -0.41628864 1.3980001
0.16708739 -0.41220343 1.3980001
0.17488807 -0.41477457 1.3961055
0.18520987 -0.41452661 1.3959134
0.19584134 -0.41493145 1.3962003
0.20549794 -0.41466394 1.3953001
0.21233568 -0.4149088 1.3920001
0.17280678 -0.40811813 1.3980001
0.18833078 -0.40484992 1.3980001
0.19675271 -0.4049128 1.398
0.20584123 -0.40433317 1.3976252
0.21233568 -0.40514624 1.3920001
0.18702351 -0.39635259 1.3980001
0.19694127 -0.39491957 1.398
0.20578501 -0.39442372 1.3972502
0.21381752 -0.39446998 1.3937145
0.22355789 -0.39214221 1.3935001
0.23308112 -0.39172271 1.3920001
0.19813544 -0.38687477 1.3980001
0.2064227 -0.38518229 1.398
0.21580823 -0.38557193 1.3972942
0.22556162 -0.38514125 1.3966669
0.23485716 -0.3853063 1.3953001
0.24377237 -0.38377017 1.3926668
0.25016561 -0.38196015 1.3920001
0.20957418 -0.37870422 1.3980001
0.21937881 -0.37747866 1.3980001
0.22734508 -0.3756403 1.398
0.23524727 -0.37492719 1.3976252
0.24284364 -0.3766351 1.3920001
0.25016561 -0.37707889 1.3920001
0.23555651 -0.36546797 1.3980001
0.24227223 -0.36568233 1.3925456
0.25016561 -0.36243504 1.3920001
0.23653696 -0.35541818 1.3979999
0.24469522 -0.35549849 1.3945265
0.25243193 -0.35476446 1.3920001
0.26676196 -0.35340467 1.3920001
0.2389881 -0.3468391 1.3980001
0.24491647 -0.3453351 1.3968751
0.25515524 -0.34427696 1.3926002
0.26571417 -0.3449063 1.3947694
0.27213135 -0.34290993 1.3920001
0.24658668 -0.33654428 1.398
0.25535369 -0.33575866 1.3966668
0.26505271 -0.33605829 1.3965
0.27481586 -0.33400813 1.394143
0.28311425 -0.33070672 1.3920001
0.24634157 -0.32968101 1.3980001
0.2545121 -0.32845542 1.3980001
0.2624492 -0.3265295 1.398
0.27738959 -0.32886395 1.3980001
0.28345764 -0.32487944 1.3954287
0.28571069 -0.31847918 1.3972501
0.29493174 -0.31368956 1.3952003
0.30263937 -0.3111816 1.3920001
0.29738638 -0.30432257 1.396
0.30163383 -0.30366769 1.3930001
0.29699889 -0.29699889 1.3980001
0.303532 -0.29447246 1.3944708
0.30713758 -0.28577816 1.3958182
0.31168196 -0.28295711 1.3942502
0.30762058 -0.27452993 1.3980001
0.31419557 -0.27507621 1.3945717
0.32094416 -0.27457201 1.3920001
0.31448841 -0.2655873 1.3946669
0.32094416 -0.26725006 1.3920001
0.31590334 -0.25704041 1.3940001
0.32094416 -0.25504687 1.3920001
-0.050248779 -0.19241606 1.3980001
-0.044269737 -0.19396302 1.3950001
-0.034165137 -0.19441916 1.3963636
-0.024485299 -0.19343519 1.3965
-0.014692495 -0.19343519 1.3965
-0.040270559 -0.1891496 1.3920001
-0.033762187 -0.18833606 1.3920001
-0.024162335 -0.18866149 1.3920001
-0.015050613 -0.18833606 1.3920001
-0.0048918002 -0.18589367 1.3950001
0.0045420094 -0.18536881 1.3950002
0.014676528 -0.18536876 1.3949999
0.024189524 -0.18513745 1.3956923
0.034659311 -0.1838972 1.3953334
0.044051845 -0.18354309 1.39575
0.053789347 -0.18233909 1.398
0.063905247 -0.18086061 1.398
0.074760377 -0.18016024 1.3980001
0.089467339 -0.18016025 1.3980001
0.096330583 -0.1806505 1.3980001
0.10487463 -0.18121077 1.398
0.11397893 -0.18016024 1.3980001
0.12133242 -0.18016025 1.3980001
0.21692765 -0.18016024 1.3980001
0.22632377 -0.18097733 1.3980001
0.23347299 -0.18077305 1.3980001
0.24143925 -0.18016025 1.3980001
-0.0061015999 -0.17938703 1.3920001
0.00488128 -0.17938703 1.3920001
0.015050613 -0.17938703 1.3920001
0.0244064 -0.17938703 1.3920001
0.034168959 -0.17938703 1.3920001
0.044454515 -0.17834105 1.3920001
0.0549144 -0.17499389 1.3920001
0.065969609 -0.17469645 1.3935
0.075768545 -0.17475998 1.3940001
0.08554513 -0.17475998 1.3940001
0.095321715 -0.17475998 1.3940001
0.10506105 -0.17469643 1.3935
0.1150397 -0.17501073 1.396
0.12411443 -0.1745452 1.3961999
0.1348138 -0.17158118 1.398
0.14461842 -0.17158119 1.398
0.15442309 -0.17117266 1.3980001
0.1644028 -0.17140612 1.398
0.1736981 -0.1730296 1.3979999
0.18483974 -0.17325243 1.3979999
0.1960928 -0.17219397 1.398
0.20610724 -0.17427605 1.3966668
0.21531588 -0.17494804 1.3955001
0.22542734 -0.17519613 1.3975
0.23497473 -0.17501073 1.396
0.24305725 -0.1746562 1.3932002
0.25446755 -0.17343347 1.3945715
0.26311922 -0.17337662 1.396
0.065897278 -0.16962448 1.3920001
0.076066606 -0.16962449 1.3920001
0.085422397 -0.16962448 1.3920001
0.093964636 -0.16962449 1.3920001
0.10250688 -0.16962448 1.3920001
0.11523307 -0.16857849 1.3920001
0.12454168 -0.16788408 1.3927501
0.13432901 -0.16649039 1.3930001
0.14399776 -0.16596352 1.3920001
0.15498063 -0.16596352 1.3920001
0.16523132 -0.16669571 1.3920001
0.17653961 -0.1679974 1.3920001
0.18601164 -0.16753252 1.3920001
0.19542553 -0.16683519 1.3920001
0.20379345 -0.16962449 1.3920001
0.22506188 -0.16857849 1.3920001
0.23454551 -0.16913633 1.3920001
0.24040304 -0.16962448 1.3920001
0.26847041 -0.16962448 1.3920001
0.27213135 -0.16962448 1.3920001
-0.14765872 0.058575362 1.3920001
-0.14717057 0.066629469 1.3920001
-0.15742128 0.079320796 1.3920001
-0.14704856 0.075049683 1.3920001
-0.1724342 0.088053286 1.3950001
-0.16522136 0.085449167 1.394182
-0.15581885 0.086202003 1.3932859
-0.14765872 0.084202081 1.3920001
-0.17035562 0.099271983 1.3980001
-0.16275702 0.096330598 1.398
-0.15728277 0.095595241 1.3980001
-0.17158121 0.10294872 1.3980001
-0.16300213 0.10294872 1.3980001
-0.15687424 0.10499135 1.3980001
0.047182202 -0.49766961 1.4039999
0.05046444 -0.49110517 1.404
0.046771921 -0.48495096 1.404
0.05046444 -0.48125842 1.404
0.056091134 -0.47563171 1.4040002
0.061542001 -0.47141171 1.404
0.057849478 -0.46156499 1.404
0.063046366 -0.46566784 1.4040002
0.057849478 -0.45541081 1.404
0.063511349 -0.45516461 1.4040002
0.057849478 -0.44556406 1.404
0.063511349 -0.44531792 1.4040002
0.1292382 -0.44187155 1.404
0.13169987 -0.44187155 1.404
0.057849478 -0.43571734 1.404
0.064003684 -0.43571737 1.4039999
0.07376834 -0.43596354 1.4039999
0.08390227 -0.43407622 1.4040002
0.096415795 -0.43202484 1.4039999
0.10215972 -0.43202484 1.404
0.1292382 -0.43571734 1.404
0.13440773 -0.43448648 1.4040002
0.14154659 -0.43202484 1.404
0.15508583 -0.43202484 1.404
0.16493255 -0.43202484 1.404
0.057849478 -0.42833233 1.404
0.063593395 -0.42792198 1.4040002
0.073440112 -0.42737496 1.4040002
0.085256182 -0.42677322 1.4039999
0.096289553 -0.42672279 1.404
0.10339057 -0.4258706 1.4040002
0.1292382 -0.42587066 1.404
0.13514623 -0.42611679 1.4039999
0.14476572 -0.42520788 1.404
0.15508583 -0.4253431 1.404
0.16390687 -0.4256655 1.4040002
0.10518949 -0.41573983 1.404
0.11569895 -0.41479307 1.4040002
0.12536985 -0.41549641 1.4040002
0.13385385 -0.41756243 1.4040002
0.14576662 -0.41637564 1.404
0.15508585 -0.41602394 1.4039999
0.16426982 -0.41649729 1.404
0.17108676 -0.41725475 1.404
0.089441039 -0.40535662 1.4040002
0.096005514 -0.40125382 1.404
0.10500012 -0.40589318 1.404
0.11200644 -0.40863889 1.404
0.12677652 -0.40986973 1.404
0.13908492 -0.40248469 1.404
0.14564943 -0.40508315 1.4039998
0.15535937 -0.40549341 1.4039998
0.16493258 -0.40494639 1.4039998
0.17484407 -0.40468723 1.4039998
0.18448924 -0.40535671 1.4039998
0.19274954 -0.40396172 1.404
0.10585225 -0.39756131 1.404
0.14646997 -0.39509964 1.404
0.16862507 -0.39756131 1.404
0.17530678 -0.39422041 1.404
0.18445016 -0.39351717 1.404
0.19218686 -0.3933413 1.4040002
0.1784718 -0.38771459 1.404
0.1851535 -0.38437369 1.404
0.19422652 -0.38377589 1.4039999
0.20344028 -0.38173625 1.4040002
0.21601242 -0.38094497 1.404
0.22401288 -0.38032955 1.404
0.18503626 -0.37704733 1.4040002
0.1969344 -0.37786788 1.404
0.20514001 -0.37704733 1.4040002
0.21451783 -0.37470287 1.404
0.22380775 -0.37314966 1.4040002
0.23016708 -0.37048283 1.404
0.21564317 -0.36506718 1.4040002
0.22401291 -0.36432868 1.4039999
0.23098762 -0.36350808 1.4040002
0.21504533 -0.35219607 1.4040002
0.2254675 -0.35459378 1.4040002
0.23238261 -0.3537434 1.4040002
0.22524372 -0.34648144 1.404
0.23421131 -0.34516269 1.404
0.24001379 -0.34217352 1.404
0.2363213 -0.33478847 1.4040002
0.24304357 -0.33450446 1.404
0.26807696 -0.3330653 1.404
0.27283618 -0.33191654 1.4039999
0.23673157 -0.32535204 1.4040002
0.24493715 -0.32494178 1.4039998
0.25619054 -0.32459006 1.404
0.26681873 -0.32453147 1.4040002
0.27546197 -0.32469559 1.4039999
0.23755212 -0.31878754 1.404
0.24599217 -0.31808421 1.4040002
0.25636637 -0.31562254 1.404
0.26339975 -0.31509504 1.4040002
0.27858013 -0.31591561 1.4040002
0.28508145 -0.31443229 1.404
0.29252961 -0.31222308 1.4039999
0.25847641 -0.30524835 1.4040002
0.26339975 -0.30524835 1.4040002
0.276939 -0.30894083 1.404
0.28580105 -0.3053304 1.4039999
0.2929399 -0.30524835 1.4040002
0.25970724 -0.29909411 1.404
0.26339975 -0.29909411 1.404
0.2870934 -0.29694015 1.4040002
0.29473889 -0.2947388 1.404
0.30155581 -0.29170907 1.404
0.29625374 -0.28583893 1.404
0.30319697 -0.28514457 1.4040002
0.29755557 -0.2766313 1.4040002
0.30401751 -0.27570814 1.4040002
0.29909411 -0.26955396 1.404
0.30586377 -0.2668871 1.4040002
0.31140253 -0.26216891 1.404
0.29909411 -0.2523222 1.404
0.3123872 -0.25576854 1.404
0.29909411 -0.24986053 1.404
0.30278665 -0.24986053 1.404
-0.034463521 -0.20062692 1.404
-0.02584764 -0.20062692 1.404
-0.043079399 -0.19816524 1.404
-0.035694361 -0.19816524 1.404
-0.0246168 -0.19816524 1.404
-0.014770079 -0.19816524 1.404
-0.00492336 -0.19447273 1.4040002
0.0057439203 -0.19242132 1.4040002
0.014945914 -0.1928902 1.4040002
0.0246168 -0.19262645 1.4040002
0.034463521 -0.19078019 1.404
0.20062692 -0.19324188 1.404
0.033232681 -0.18831854 1.4039999
0.044310242 -0.18831852 1.404
0.054156959 -0.18708768 1.404
0.064824246 -0.18503629 1.4040002
0.074588902 -0.1838875 1.404
0.084927969 -0.18265666 1.4040002
0.095478006 -0.18480183 1.4040002
0.10659075 -0.1853645 1.404
0.11643746 -0.18290281 1.404
0.12382251 -0.18290281 1.404
0.13416156 -0.18093348 1.4039999
0.16739424 -0.18093348 1.404
0.17453313 -0.18142581 1.404
0.18462598 -0.18093348 1.404
0.19570355 -0.18175404 1.4039999
0.2046711 -0.18445015 1.404
0.21437132 -0.18483113 1.4040002
0.22305554 -0.18558331 1.4040002
0.24001379 -0.18093348 1.404
0.1292382 -0.17601013 1.4039999
0.1353924 -0.17724097 1.4040002
0.14523911 -0.17724097 1.4040002
0.15508585 -0.17601013 1.4040002
0.1647958 -0.17683069 1.4040002
0.17477928 -0.1784718 1.404
0.18462598 -0.1784718 1.404
0.1944727 -0.17724097 1.4040002
0.20431943 -0.1784718 1.404
0.25970724 -0.17601012 1.404
-0.1784718 0.088620484 1.404
-0.16739424 0.08985132 1.404
-0.14893164 0.08985132 1.404
-0.17231761 0.094774686 1.4040002
-0.16739424 0.094774671 1.4040002
-0.15336266 0.096005514 1.4040002
-0.17231759 0.10708308 1.404
-0.16534284 0.10708308 1.4040002
-0.15385498 0.10523683 1.4040002
-0.16124004 0.11200644 1.404
-0.15754752 0.11200644 1.404
0.045781724 -0.49496731 1.4115
0.045825869 -0.48181471 1.4128572
0.050680101 -0.48084289 1.4100001
0.046856083 -0.47451863 1.414
0.053018775 -0.47355849 1.4115385
0.045897882 -0.46270031 1.4150001
0.053997274 -0.46486604 1.4123077
0.060568899 -0.46518564 1.4100002
0.044905495 -0.45426503 1.4150003
0.053212199 -0.45459554 1.4116668
0.060568899 -0.45612091 1.4100001
0.046890274 -0.44632593 1.4150001
0.053236596 -0.44448343 1.4123077
0.060568899 -0.444996 1.4100001
0.046828248 -0.43447927 1.4150001
0.053234782 -0.43456963 1.4122727
0.076638199 -0.43263501 1.4100001
0.045897882 -0.425982 1.4150001
0.054730043 -0.42466012 1.4132355
0.064325102 -0.42306456 1.4110714
0.07387431 -0.42335427 1.4109091
0.083525047 -0.42256966 1.41
0.093943596 -0.42274621 1.41
0.1001241 -0.4215101 1.4100001
0.1396793 -0.42274618 1.4100001
0.057475727 -0.41721591 1.4150001
0.065536231 -0.41544756 1.4146155
0.074568585 -0.41498843 1.4139477
0.0839215 -0.41539639 1.4114705
0.094190821 -0.41557685 1.41
0.10160742 -0.41557679 1.4100001
0.11804755 -0.41223937 1.4100001
0.12596761 -0.41288808 1.4107143
0.13601483 -0.41316196 1.4113334
0.1421515 -0.41532958 1.4100001
0.065538868 -0.40398407 1.4150001
0.073761053 -0.40430215 1.4150002
0.084268361 -0.40468568 1.4136113
0.094717249 -0.40558237 1.4104999
0.10365582 -0.40597051 1.41
0.11463634 -0.4045198 1.4111111
0.12382478 -0.40491918 1.4125
0.13479649 -0.40440106 1.4134213
0.1421515 -0.40544081 1.4100001
0.1532764 -0.4017325 1.4100001
0.075669482 -0.39571419 1.4150001
0.085020818 -0.39514172 1.4150002
0.094365098 -0.39500779 1.4134213
0.10374253 -0.39445984 1.4125001
0.11415052 -0.39463374 1.4136113
0.12427436 -0.39498523 1.4140627
0.13510309 -0.39471236 1.4138892
0.14511825 -0.39506051 1.4105883
0.15585405 -0.39526963 1.4102941
0.16531828 -0.39423615 1.4115002
0.1718179 -0.39307982 1.4100001
0.088074319 -0.38827127 1.4150001
0.095021024 -0.38603842 1.4150001
0.10366897 -0.38490424 1.4150002
0.11412446 -0.38454986 1.4150003
0.1239919 -0.38499802 1.4143753
0.13521269 -0.38472703 1.4150001
0.14424267 -0.38706991 1.4132143
0.15328565 -0.38768879 1.4138889
0.16622476 -0.38641053 1.4150001
0.17534339 -0.38543653 1.4126474
0.1817067 -0.38319099 1.4100001
0.097998179 -0.37834743 1.4150001
0.10196773 -0.37636262 1.4150001
0.11567507 -0.37617657 1.4150001
0.12440164 -0.37535679 1.4143336
0.16994621 -0.37462598 1.4150001
0.17607258 -0.37525949 1.4138237
0.18548153 -0.37399834 1.4113636
0.19537513 -0.37464765 1.4125001
0.20453587 -0.37387845 1.4109091
0.2126092 -0.37206611 1.4100001
0.12528881 -0.36718306 1.4150001
0.16911922 -0.36676955 1.4150001
0.17704284 -0.36662394 1.4144444
0.18578078 -0.36648729 1.4136363
0.19624445 -0.36478475 1.4150003
0.20573175 -0.36536443 1.412778
0.21260922 -0.36464953 1.41
0.17987008 -0.35353774 1.4150001
0.18813998 -0.35477826 1.4150001
0.19682336 -0.35539851 1.4150001
0.20532346 -0.3552992 1.412143
0.21439467 -0.35778224 1.41
0.22175634 -0.35574958 1.4100001
0.18979394 -0.34733534 1.4150001
0.19624446 -0.34559864 1.4150001
0.20588161 -0.34587047 1.4115624
0.21512933 -0.34618393 1.4103124
0.22442533 -0.34524822 1.4107692
0.2323868 -0.34239969 1.4100001
0.20774369 -0.33907714 1.4133334
0.21642874 -0.33664498 1.4137501
0.2254976 -0.3352212 1.4121053
0.2323868 -0.33498311 1.41
0.21873856 -0.3279011 1.4150001
0.226337 -0.3259311 1.4136363
0.23354799 -0.32395223 1.4109091
0.26823369 -0.32262209 1.4100002
0.2731781 -0.3201499 1.4100002
0.23651882 -0.31797722 1.4150001
0.24478783 -0.31409013 1.4116668
0.25304732 -0.31202698 1.41
0.26823369 -0.3139694 1.4100001
0.27388445 -0.31396943 1.41
0.28059471 -0.3102611 1.4100001
0.24673827 -0.30489895 1.4115
0.25378087 -0.30379534 1.41
0.26823369 -0.30408061 1.4100001
0.27441421 -0.30408061 1.41
0.28108913 -0.30432782 1.4100001
0.24809669 -0.29523501 1.4150001
0.25536948 -0.29503748 1.4140627
0.26476097 -0.29444987 1.41125
0.27459472 -0.29438552 1.4109374
0.2840558 -0.29394454 1.41
0.2904835 -0.2904835 1.4100001
0.26471916 -0.28804022 1.4150001
0.27662778 -0.28682733 1.4150001
0.28492928 -0.28493202 1.4131252
0.29171959 -0.28430301 1.41
0.27910876 -0.27166584 1.4150001
0.28511968 -0.27520457 1.4140627
0.29366201 -0.27406102 1.41
0.27828178 -0.26546344 1.4150001
0.28467777 -0.26487878 1.4118751
0.29419178 -0.26452541 1.41
0.303294 -0.26328927 1.41
0.3102611 -0.26081711 1.4100001
0.28524366 -0.25803369 1.411
0.29480985 -0.2556667 1.41
0.30441773 -0.25609744 1.41
0.31087917 -0.25649074 1.4100001
0.30284449 -0.24845611 1.4100001
-0.040935948 -0.21460362 1.4150001
-0.038454983 -0.21212265 1.4150001
-0.043108132 -0.20452097 1.4138889
-0.035092484 -0.20601229 1.4127778
-0.024476532 -0.20524654 1.4123077
-0.015105844 -0.20528875 1.4123334
-0.0057062232 -0.20269497 1.4150001
0.004961933 -0.20219879 1.4150001
0.0148858 -0.20219879 1.4150001
-0.0049476875 -0.19918853 1.4112501
0.0049471394 -0.1978642 1.410625
0.014666007 -0.19805339 1.4107143
0.025291206 -0.19825503 1.4121429
0.035027217 -0.19676107 1.4131818
0.04434735 -0.19547532 1.4130002
0.054209482 -0.19440681 1.414091
0.063973501 -0.19333819 1.4150001
0.074429005 -0.19227491 1.4150001
0.08559335 -0.19227491 1.4150001
0.094414562 -0.1939289 1.4150001
0.10374766 -0.19385341 1.4144444
0.11412446 -0.19351541 1.4150001
0.12404834 -0.19351541 1.4150001
0.16796145 -0.1932673 1.4150001
0.17614862 -0.19227491 1.4150001
0.19573283 -0.19325843 1.413125
0.20148429 -0.19159549 1.4100001
0.0568606 -0.1891233 1.4100001
0.064277194 -0.1891233 1.4100001
0.073710136 -0.1882554 1.4114286
0.084203839 -0.18822253 1.4125
0.093943596 -0.1891233 1.4100001
0.10383239 -0.1891233 1.4100001
0.11505812 -0.18805486 1.41125
0.12557372 -0.18712778 1.41125
0.13463847 -0.18647577 1.4133334
0.14443345 -0.18407807 1.413
0.15484698 -0.1845835 1.413077
0.16535749 -0.18605371 1.4121429
0.17626962 -0.18691848 1.4119999
0.18579964 -0.18704011 1.4129167
0.19517669 -0.18623468 1.4111538
0.2027204 -0.1866511 1.4100001
0.21137311 -0.18788719 1.4100001
0.15574861 -0.1792345 1.4100001
-0.1495681 0.095179699 1.4100002
-0.1495681 0.10259629 1.4100002
-0.1732085 0.1138242 1.41125
-0.16558512 0.1153997 1.4110714
-0.15945689 0.1149573 1.4100001
-0.17325418 0.12115387 1.4150001
-0.16392101 0.12174458 1.4150001
0.037947103 -0.47246227 1.427
