# .PCD v0.7 - Point Cloud Data file format
VERSION 0.7
FIELDS x y z
SIZE 4 4 4
TYPE F F F
COUNT 1 1 1
WIDTH 1477
HEIGHT 1
VIEWPOINT 0 0 0 1 0 0 0
POINTS 1477
DATA ascii
0.17137957 -0.20506111 1.13
0.16581227 -0.1952177 1.1350909
0.17137957 -0.19812667 1.13
-0.38010338 -0.18057404 1.138
-0.37711042 -0.18057404 1.138
0.16409974 -0.18498807 1.1345
-0.39236021 -0.17173776 1.138
-0.38376141 -0.17370136 1.1380002
-0.37441677 -0.1747877 1.1380002
-0.36463404 -0.17477331 1.1374668
-0.35516226 -0.17359051 1.1380001
0.15862583 -0.17059758 1.138
0.16242504 -0.1756334 1.1337143
-0.3921032 -0.16533309 1.1354545
-0.38496763 -0.16458942 1.1344001
-0.37500027 -0.16556777 1.1327275
-0.36503822 -0.1668231 1.1323159
-0.35486603 -0.16665037 1.1327275
-0.34477642 -0.1649214 1.136364
-0.33476281 -0.16308279 1.136182
-0.32453823 -0.16255629 1.1365715
-0.31725162 -0.16161875 1.138
0.15755603 -0.16384238 1.1358463
0.16094197 -0.16640097 1.1315
-0.39069703 -0.15707412 1.1340001
-0.38480532 -0.1563767 1.1306155
-0.37875214 -0.15883154 1.13
-0.34474039 -0.15850134 1.13
-0.33604488 -0.15839128 1.13
-0.32635868 -0.15795098 1.13
-0.3151949 -0.15511987 1.13336
-0.30451745 -0.15383139 1.1343076
-0.29498518 -0.15312509 1.1364002
-0.28632459 -0.15064465 1.138
0.15599388 -0.1545614 1.1342223
-0.31105888 -0.14958563 1.13
-0.30384138 -0.14901955 1.13
-0.29350582 -0.14601323 1.133
-0.28477272 -0.14478098 1.1358001
-0.27486348 -0.14216553 1.136
-0.26603913 -0.14133328 1.138
0.15393296 -0.14482874 1.1344212
-0.28289658 -0.1382641 1.13
-0.27385905 -0.1363451 1.1307273
-0.264761 -0.13532339 1.1334548
-0.25484684 -0.13394764 1.1363639
-0.24721685 -0.1318889 1.138
0.15176794 -0.13503677 1.1339999
-0.26152718 -0.12977296 1.13
-0.25459278 -0.12858421 1.13
-0.24416435 -0.12631452 1.1345
-0.23536602 -0.12225533 1.1354545
-0.22726092 -0.12060918 1.1370001
0.1483168 -0.12404075 1.138
0.15084101 -0.12503898 1.132
-0.23359135 -0.11788537 1.13
-0.22470711 -0.11600806 1.1321176
-0.21549198 -0.11468191 1.1339999
-0.20508945 -0.11250351 1.1356666
-0.19753404 -0.11073878 1.138
0.14631516 -0.11529126 1.1354119
0.15059905 -0.11816122 1.1326667
-0.2139768 -0.1099603 1.13
-0.20506111 -0.10817716 1.13
-0.19529536 -0.10538427 1.1324762
-0.18575583 -0.10388751 1.134174
-0.17635393 -0.10172058 1.1365453
-0.16760464 -0.10076232 1.138
0.14958563 -0.1099603 1.13
-0.18227653 -0.0980727 1.13
-0.17492481 -0.096493982 1.1316
-0.16491303 -0.094384357 1.1332307
-0.15468453 -0.092652425 1.1349412
-0.14523678 -0.091065221 1.1373334
-0.13867289 -0.090785846 1.138
-0.1545388 -0.088166364 1.13
-0.14385135 -0.086974978 1.1316668
-0.13482641 -0.084989153 1.1328573
-0.12643704 -0.08223173 1.1343077
-0.11871995 -0.080809377 1.138
-0.12315106 -0.075283751 1.1317499
-0.11503399 -0.073797941 1.1336666
-0.10486045 -0.073338427 1.1355557
-0.095070213 -0.07160905 1.1362224
-0.11342752 -0.067858383 1.13
-0.1049411 -0.066768683 1.13
-0.093793273 -0.064938836 1.1316363
-0.084513254 -0.064635776 1.13416
-0.075179517 -0.063659191 1.135474
-0.065353744 -0.061968066 1.1364
-0.055868212 -0.060856447 1.138
-0.083213195 -0.058447365 1.13
-0.073802188 -0.057704389 1.13
-0.064205311 -0.056695785 1.1317143
-0.05406275 -0.055635396 1.1321052
-0.044821795 -0.053916425 1.1338096
-0.035044055 -0.053590454 1.1352633
-0.025459154 -0.05134787 1.1357144
-0.018955287 -0.050879981 1.138
-0.043587867 -0.048541032 1.13
-0.034672167 -0.048541032 1.13
-0.024301641 -0.047862493 1.1315
-0.014075853 -0.045168355 1.1342105
-0.0049754693 -0.044792127 1.1352803
0.0047689737 -0.043661423 1.1358949
0.014239572 -0.04285723 1.1368572
0.024941165 -0.040903512 1.138
0.034585085 -0.041236062 1.138
0.040903512 -0.040903512 1.138
-0.010896967 -0.038634699 1.13
-0.0049531669 -0.038634699 1.13
0.0061450829 -0.037261486 1.1304001
0.014881476 -0.036707666 1.1315999
0.024824275 -0.03674227 1.1326667
0.035106607 -0.036102686 1.1333334
0.044956382 -0.035582397 1.134762
0.054360449 -0.035289753 1.1347059
0.06318254 -0.034663402 1.1350001
0.1396793 -0.036653433 1.13
0.14166057 -0.036653433 1.13
0.074297503 -0.022784567 1.13
0.11830266 -0.01093554 1.1340001
0.12106942 -0.010916254 1.132
0.1160886 -0.0072416714 1.1303078
0.051602356 0.098246276 1.132
0.055718303 0.10373334 1.1350001
0.061660171 0.10726297 1.1308
0.058861151 0.11073878 1.138
0.062555626 0.11348956 1.1366668
-0.2341197 0.26714078 1.13
-0.23503688 0.27531287 1.1312308
-0.24254318 0.28711146 1.1348
-0.2353733 0.28504685 1.130842
-0.24276067 0.29397324 1.138
-0.23509747 0.29414719 1.1331112
-0.22754265 0.29530993 1.1307273
-0.23332202 0.30225959 1.1364
-0.22964634 0.30221856 1.1340001
0.15584607 -0.47248623 1.1482729
0.16112578 -0.47266331 1.1463333
0.15795869 -0.46750939 1.1476668
0.16184857 -0.46386361 1.1467144
0.16335249 -0.45408976 1.1468949
0.16523884 -0.44521871 1.1458575
0.17154744 -0.44312257 1.141
0.16617964 -0.43471456 1.1450003
0.17104732 -0.43512034 1.141
0.16588725 -0.42427713 1.1468464
0.1724477 -0.42411727 1.1409999
0.16710669 -0.41475847 1.146778
0.17294779 -0.41550508 1.1412857
0.16823013 -0.40476024 1.1456668
0.17193645 -0.40533432 1.1409999
0.16836821 -0.39627829 1.1475456
0.17275956 -0.39438051 1.1432501
0.17345743 -0.38499585 1.1455457
0.17525287 -0.37473172 1.1446525
0.17485169 -0.36537507 1.1450002
0.16821744 -0.3515442 1.149
0.17288455 -0.35551387 1.1446002
0.16821744 -0.34751502 1.149
0.17287213 -0.34466055 1.1440911
0.17354579 -0.33506668 1.1443336
0.1680989 -0.32311636 1.1482
0.17285548 -0.32600713 1.1434445
0.16821744 -0.31729636 1.149
0.17160508 -0.31511587 1.1447502
0.1687862 -0.30237061 1.1474001
0.1727788 -0.30523977 1.1436669
0.16858473 -0.29412133 1.1474001
0.17246433 -0.29546273 1.1431819
0.16705912 -0.2843287 1.1468949
0.17200309 -0.28474453 1.1414444
0.16652346 -0.27445063 1.1459526
0.1720476 -0.27507609 1.1409999
0.16675393 -0.26502717 1.1467502
0.17104732 -0.26507333 1.141
0.16578569 -0.25554651 1.1450003
0.16653574 -0.24571796 1.1453813
0.16525012 -0.23566201 1.1457621
0.16314226 -0.22529741 1.1454213
0.15960155 -0.21179828 1.1450001
0.16229409 -0.21593031 1.1442001
0.15905517 -0.20478605 1.1465001
0.16177742 -0.20611949 1.1421429
-0.36161712 -0.19138509 1.149
-0.35658064 -0.19104934 1.149
0.15887305 -0.19507235 1.1470001
0.16104454 -0.19505396 1.141
-0.40291598 -0.18231949 1.149
-0.39528018 -0.18398033 1.1484667
-0.38565823 -0.18475582 1.1466002
-0.37434471 -0.18458013 1.1463333
-0.36526331 -0.18486433 1.1469049
-0.35560647 -0.18490517 1.1476668
-0.34495506 -0.18331233 1.147182
-0.33710638 -0.18164796 1.149
0.15844053 -0.18477178 1.147182
0.16104454 -0.18605146 1.141
-0.40050954 -0.17666587 1.1450001
-0.3951354 -0.17702506 1.1431819
-0.38677362 -0.17838268 1.1409999
-0.3731032 -0.17904952 1.141
-0.36210015 -0.17904952 1.141
-0.35354251 -0.17837413 1.1418
-0.34491348 -0.17517342 1.1423335
-0.33520257 -0.17479272 1.143667
-0.32554242 -0.17416722 1.1475884
-0.31533438 -0.17398877 1.1481429
-0.30503002 -0.17281818 1.1483334
0.1568359 -0.17490706 1.1450001
-0.33409241 -0.16804647 1.1409999
-0.32411402 -0.168165 1.1418
-0.31377959 -0.16616665 1.142143
-0.30486315 -0.16506408 1.1450002
-0.29499659 -0.16446277 1.1465001
-0.28617221 -0.16269723 1.1470001
-0.27901933 -0.16015911 1.149
0.15384479 -0.16490684 1.1470002
-0.30459344 -0.15880348 1.1416668
-0.29458147 -0.15854384 1.141
-0.28437591 -0.15606384 1.1427393
-0.27581939 -0.15382355 1.1477501
-0.26520506 -0.15224467 1.149
-0.25820199 -0.15075773 1.149
0.15140909 -0.1550955 1.1463335
-0.28107774 -0.14904122 1.141
-0.27445734 -0.14824924 1.1425999
-0.26450059 -0.14559132 1.1424545
-0.25529939 -0.14476466 1.1436089
-0.24590237 -0.14330606 1.1474001
0.14873478 -0.14426573 1.1472223
0.15130654 -0.1483022 1.1430001
-0.25206971 -0.13903846 1.141
-0.24427672 -0.13630016 1.141706
-0.23609178 -0.13390879 1.1465558
-0.22462566 -0.13195498 1.149
-0.21656735 -0.13195498 1.149
0.14744456 -0.13468318 1.1452857
-0.23401475 -0.12734038 1.1420908
-0.22484425 -0.12633932 1.1432861
-0.21549644 -0.12519157 1.1446669
-0.20658131 -0.12289217 1.1464547
-0.19742884 -0.12188209 1.149
0.14454091 -0.12547681 1.1450001
-0.21305893 -0.11903292 1.141
-0.20434152 -0.11769179 1.1420909
-0.19485039 -0.1161695 1.1440911
-0.18556844 -0.11435661 1.1442001
-0.17551185 -0.11357829 1.1465002
-0.16801989 -0.11167944 1.1476668
-0.18205035 -0.10903016 1.141
-0.1744639 -0.10711152 1.1418571
-0.16487139 -0.10595544 1.143435
-0.15524919 -0.10515215 1.1450002
-0.14541598 -0.10415967 1.1464739
-0.13709542 -0.10206838 1.1482
-0.1541855 -0.098455802 1.1409999
-0.1445103 -0.096479267 1.1414707
-0.13516474 -0.095654882 1.1443046
-0.12605594 -0.094000176 1.1471177
-0.11835657 -0.092167035 1.149
-0.12333455 -0.087239727 1.1438001
-0.11539721 -0.085550465 1.1455457
-0.10632614 -0.083482839 1.1472858
-0.095840015 -0.082422726 1.1481112
-0.085907444 -0.082166076 1.149
-0.077225566 -0.082262009 1.149
-0.11203098 -0.079021856 1.141
-0.10448142 -0.07878077 1.1423334
-0.094905548 -0.077301703 1.1429999
-0.085116744 -0.075423725 1.1445004
-0.075365379 -0.075372674 1.1462802
-0.065642178 -0.073932558 1.1478237
-0.055848632 -0.072412953 1.149
-0.072520062 -0.068518952 1.141
-0.064623751 -0.067400225 1.1422309
-0.054934751 -0.066339158 1.1437371
-0.045485448 -0.064765669 1.1460911
-0.035352834 -0.064541072 1.1459525
-0.025241032 -0.064192712 1.1468949
-0.017318726 -0.063840799 1.1486001
-0.042011619 -0.059016325 1.141
-0.035009682 -0.059016325 1.141
-0.024504762 -0.056963284 1.1426002
-0.014794132 -0.055569571 1.1451741
-0.0052972985 -0.054710452 1.1459092
0.004743393 -0.05315255 1.1470002
0.015277232 -0.052882727 1.149
0.024734564 -0.052267153 1.149
0.035255153 -0.05137179 1.149
0.0060095498 -0.049056511 1.1420001
0.016159596 -0.048035003 1.1441112
0.025297416 -0.046321452 1.1445789
0.035250768 -0.046522859 1.1452224
0.045472965 -0.04556727 1.1460438
0.055181563 -0.045054525 1.1461669
0.063724793 -0.044624858 1.1470002
0.058016047 -0.039010789 1.141
0.064017706 -0.039010789 1.141
0.053199347 0.10774409 1.1450001
0.056810316 0.11426514 1.1479092
0.063503101 0.117598 1.1426001
0.063160032 0.12131635 1.1436666
-0.24706833 0.28807968 1.141
-0.2518225 0.29916513 1.149
-0.24710649 0.29565555 1.1432223
-0.25081521 0.30319428 1.149
-0.2452879 0.30475834 1.1464119
-0.23717238 0.30560997 1.1423333
-0.24379662 0.31506366 1.1482002
-0.23742405 0.31319147 1.1453638
-0.24275689 0.32132551 1.149
0.13895956 -0.47266537 1.1570001
0.14484163 -0.47403574 1.1553998
0.1521249 -0.47204205 1.153
0.14581819 -0.46575847 1.1569998
0.15437299 -0.46480799 1.1534444
0.14669362 -0.45605615 1.1569998
0.15454388 -0.45576862 1.1538888
0.16071667 -0.45384771 1.153
0.14876448 -0.44595537 1.1570001
0.15486225 -0.44556847 1.1545998
0.16071667 -0.44373974 1.153
0.14910258 -0.43817902 1.1570001
0.15512159 -0.43556964 1.1559627
0.16129425 -0.43478695 1.153
0.15607576 -0.42565054 1.1564283
0.16071667 -0.42554539 1.153
0.15654083 -0.41518813 1.1569998
0.16194241 -0.41471347 1.1533333
0.1578256 -0.40592417 1.1569999
0.16362974 -0.40564933 1.1545554
0.15848491 -0.39380324 1.1570001
0.1640375 -0.39465091 1.1547141
0.15843418 -0.3868553 1.1570001
0.1650416 -0.3847664 1.1549999
0.17082463 -0.38208115 1.153
0.16574538 -0.37424636 1.1545236
0.17082463 -0.37500554 1.153
0.15924563 -0.36109197 1.1570001
0.16499363 -0.36441138 1.1546665
0.17082463 -0.36590838 1.153
0.15883991 -0.35439759 1.1570001
0.16487733 -0.35516086 1.1545236
0.15924563 -0.34689176 1.1570001
0.16485773 -0.34518737 1.1549999
0.15924563 -0.3357344 1.1570001
0.16503027 -0.33513221 1.1549199
0.15866601 -0.32559136 1.1570002
0.16396166 -0.32479265 1.1537999
0.15890752 -0.31477213 1.1570001
0.16457918 -0.31442478 1.1542172
0.15823132 -0.3053053 1.1569999
0.16412248 -0.30469364 1.1539522
0.15890752 -0.29583848 1.1570001
0.1635678 -0.29476339 1.154111
0.15866601 -0.28443965 1.1570002
0.16172746 -0.28504467 1.153
0.15691482 -0.27489349 1.155857
0.16161515 -0.27549827 1.153
0.15779886 -0.26559746 1.1566923
0.16192964 -0.26644602 1.153
0.15729432 -0.25444403 1.1563333
0.16105358 -0.25606847 1.153
0.15749478 -0.24544446 1.1553332
0.16172746 -0.24562359 1.153
0.15770446 -0.23522359 1.1551819
0.16071667 -0.23551562 1.153
0.15795605 -0.22478434 1.155
0.16071667 -0.22945084 1.153
0.15803817 -0.21518084 1.1547778
-0.37123501 -0.20286065 1.1570001
-0.36430398 -0.20336783 1.1569999
-0.35703477 -0.20184636 1.1570001
0.15596877 -0.2054536 1.1552856
-0.40447441 -0.19395958 1.1563331
-0.3945154 -0.19400038 1.1545554
-0.38425127 -0.19452949 1.1554346
-0.37387019 -0.19529003 1.1547998
-0.36478832 -0.19556749 1.1535714
-0.35492942 -0.1953117 1.1543332
-0.34557557 -0.19305849 1.156
-0.33700225 -0.19271763 1.1570001
-0.32863426 -0.19170333 1.1570001
-0.31950554 -0.19170333 1.1570001
0.15405002 -0.19519082 1.1548946
-0.40398994 -0.18783745 1.1535
-0.3977485 -0.18851358 1.153
-0.38460812 -0.18901898 1.153
-0.37702715 -0.18851358 1.153
-0.35175723 -0.18800819 1.153
-0.34445703 -0.1881205 1.153
-0.33458778 -0.18592872 1.1547141
-0.32500604 -0.18528803 1.1549199
-0.3156279 -0.1843908 1.1553156
-0.3053053 -0.1825746 1.1569999
-0.29685277 -0.18223649 1.1570001
0.14910258 -0.18561751 1.1570001
0.15353754 -0.1855991 1.1547776
-0.32446569 -0.17891102 1.153
-0.31349134 -0.17833342 1.153
-0.30285022 -0.17657839 1.153
-0.29446587 -0.17506444 1.1542798
-0.28696454 -0.17407268 1.1566666
0.14910258 -0.17547449 1.1570001
0.15225552 -0.17552663 1.1539999
-0.29363644 -0.16880304 1.153
-0.28387454 -0.16703042 1.1547142
-0.27556348 -0.16384092 1.1548822
-0.26557234 -0.1629443 1.1562499
-0.25864735 -0.16127422 1.1570001
0.14814371 -0.16481869 1.1565557
0.15094565 -0.16543372 1.153
-0.27325204 -0.15734735 1.153
-0.26583952 -0.15768427 1.153
-0.25494984 -0.15527362 1.1545998
-0.24680884 -0.15185131 1.1558572
0.14680046 -0.15490322 1.1548666
-0.24269976 -0.14690231 1.1543332
-0.23506832 -0.14338633 1.1563332
-0.22720394 -0.14098816 1.1570001
0.1450462 -0.14427027 1.1545384
-0.23331895 -0.13797018 1.1535714
-0.22455379 -0.13661873 1.1553528
-0.21522045 -0.13362879 1.1555454
-0.20928459 -0.13152133 1.1570001
0.13895956 -0.13287373 1.1570001
0.14239931 -0.135084 1.1545384
-0.20521453 -0.12661467 1.1553999
-0.19565628 -0.12506317 1.1554614
-0.18554375 -0.12285388 1.1557498
-0.17558993 -0.12246658 1.1558571
-0.16776577 -0.12151353 1.1570001
0.13847914 -0.12837118 1.153
0.14050074 -0.12634958 1.153
-0.1809326 -0.11826321 1.153
-0.17419396 -0.11792627 1.153
-0.16484144 -0.11555275 1.1544117
-0.15469849 -0.11395619 1.1551175
-0.14538342 -0.11256907 1.1553998
-0.13895956 -0.11055906 1.1570001
-0.1411746 -0.10748138 1.153
-0.13406567 -0.10545761 1.1552498
-0.12570707 -0.10194892 1.1555454
-0.11867349 -0.10041603 1.1570001
-0.12271072 -0.097642958 1.153
-0.11473425 -0.094915442 1.1552856
-0.10447323 -0.090272993 1.1570001
-0.09838742 -0.090272993 1.1570001
-0.11118764 -0.089960903 1.153
-0.10335396 -0.087181218 1.153
-0.094209701 -0.086845703 1.1555454
-0.08497379 -0.086266622 1.1551818
-0.075280435 -0.085184835 1.1552222
-0.067241795 -0.081773125 1.1563333
-0.059843898 -0.080129966 1.1570001
-0.065364845 -0.078842133 1.153
-0.055330172 -0.076691508 1.1551818
-0.046085048 -0.07343325 1.1553332
-0.035473265 -0.071965739 1.1562001
-0.025357584 -0.072015539 1.1570001
-0.019271763 -0.072015539 1.1570001
-0.043464258 -0.069744967 1.153
-0.034367085 -0.069744967 1.153
-0.024932986 -0.069408037 1.153
-0.013939471 -0.066432253 1.1548461
-0.0054191924 -0.064250536 1.154647
0.0045631961 -0.063358314 1.1563333
0.015668932 -0.063539654 1.1560769
0.024428796 -0.0633284 1.1566364
-0.00303239 -0.059636999 1.153
0.0054215458 -0.05835053 1.153
0.015006443 -0.05792642 1.153
0.025528973 -0.057375643 1.15325
0.035447139 -0.0567156 1.1551998
0.045217883 -0.054332975 1.1547776
0.055658109 -0.053636506 1.1543332
0.062669389 -0.05155063 1.153
0.057615411 -0.049529035 1.153
0.049529035 0.11422002 1.153
0.054177377 0.11630023 1.1535714
0.058626205 0.1212956 1.153
0.063362829 0.12531197 1.1545999
-0.25443718 0.30586138 1.1539999
-0.25367209 0.31485146 1.1566666
-0.24926248 0.31435776 1.153
-0.25053293 0.32153416 1.1570001
-0.24495365 0.32639214 1.1559089
-0.2444471 0.3316772 1.1570001
0.11887951 -0.48064214 1.169
0.12502845 -0.48166695 1.169
0.13326006 -0.48124909 1.1663333
0.11990433 -0.47859249 1.169
0.12554087 -0.47526178 1.169
0.13433312 -0.47457069 1.1648623
0.12810291 -0.46492818 1.169
0.13503601 -0.46440566 1.1658753
0.14147559 -0.46513915 1.161
0.12810291 -0.45604637 1.169
0.13519251 -0.45511338 1.1668336
0.14268455 -0.45361632 1.1631334
0.13571589 -0.44901904 1.169
0.14489828 -0.44570482 1.1651905
0.14697519 -0.43494081 1.1638235
0.13712136 -0.42489177 1.169
0.14500114 -0.4251571 1.1648669
0.15233223 -0.42340896 1.1610001
0.13835114 -0.41573665 1.169
0.14505473 -0.41546577 1.1658573
0.15196034 -0.41331062 1.1618001
0.14533217 -0.40557703 1.1678574
0.15304276 -0.4045403 1.1634762
0.14783077 -0.39506939 1.169
0.15356006 -0.39546159 1.1642729
0.14801376 -0.38401598 1.169
0.15438172 -0.38462749 1.1651484
0.14731835 -0.37559772 1.169
0.15571134 -0.375323 1.1656898
0.1618318 -0.37658972 1.161
0.14859939 -0.36996123 1.169
0.15481904 -0.36539918 1.1655928
0.15412956 -0.35502407 1.1656668
0.14772096 -0.34390143 1.169
0.1545689 -0.34484735 1.165923
0.1618318 -0.34300196 1.161
0.14777951 -0.33757681 1.169
0.15405299 -0.33515769 1.1659094
0.14859939 -0.32589382 1.169
0.15406309 -0.32507825 1.1651667
0.15390952 -0.31516585 1.1648183
0.15319264 -0.30469108 1.1653811
0.15440245 -0.29470491 1.1664401
0.14859939 -0.28695053 1.169
0.15383789 -0.28504884 1.1654212
0.15206309 -0.27509236 1.1652858
0.14859939 -0.26440442 1.169
0.15279394 -0.26498634 1.1645555
0.14783075 -0.25518104 1.169
0.15240762 -0.25497547 1.1631179
0.14859939 -0.24493277 1.169
0.15282257 -0.24461436 1.1647778
0.14859939 -0.23365971 1.169
0.15308607 -0.23471639 1.1654212
-0.4033412 -0.22121544 1.169
-0.39332718 -0.22074695 1.169
-0.38476422 -0.22124797 1.169
-0.37611017 -0.22033702 1.169
-0.36483708 -0.22033702 1.169
0.14791617 -0.22102024 1.169
0.15335572 -0.22511899 1.1658423
-0.41095415 -0.2111136 1.169
-0.4049876 -0.21415995 1.1688464
-0.39463788 -0.21523823 1.1678891
-0.38477343 -0.21499096 1.1680478
-0.37455651 -0.21455866 1.1664119
-0.364923 -0.21466324 1.1660002
-0.35638791 -0.21251325 1.1685556
-0.34582096 -0.21099973 1.169
-0.33853331 -0.21077199 1.169
0.14706214 -0.21367566 1.1689999
0.15307711 -0.21533455 1.1641111
-0.4117848 -0.20512992 1.1670001
-0.4051581 -0.20437329 1.1656003
-0.39491132 -0.20500585 1.1634002
-0.38551155 -0.2049882 1.1623333
-0.37653193 -0.20539522 1.1620003
-0.36462662 -0.2080524 1.1614445
-0.35488337 -0.20501342 1.1646001
-0.34457266 -0.20419915 1.1646004
-0.33502376 -0.20458734 1.1676668
-0.32574743 -0.20408626 1.1689999
-0.31803682 -0.20257342 1.169
0.14699438 -0.20424655 1.1660666
0.15176825 -0.20609586 1.161889
-0.41143194 -0.19654898 1.1616668
-0.40474907 -0.19847293 1.161
-0.39898151 -0.19847295 1.161
-0.35246295 -0.19864389 1.1620001
-0.34532839 -0.19760056 1.1610001
-0.33489728 -0.1967781 1.162143
-0.32529521 -0.19667569 1.1654
-0.3150245 -0.19507498 1.1659602
-0.30509371 -0.19448285 1.1672859
-0.29491329 -0.19296008 1.1683846
-0.28797534 -0.19164196 1.169
0.1467962 -0.19484541 1.1648096
-0.31171724 -0.18743922 1.1620001
-0.30464041 -0.18747167 1.1622001
-0.29395834 -0.18651378 1.164059
-0.28522086 -0.1849822 1.1668335
-0.27679333 -0.18322085 1.1686666
-0.26952854 -0.18139373 1.169
0.14555193 -0.18494487 1.1655456
-0.28326544 -0.17638445 1.163
-0.27529484 -0.17559937 1.1670001
-0.26569903 -0.17442147 1.1680479
-0.25774309 -0.1716579 1.169
0.14526041 -0.17531525 1.1654708
-0.27495408 -0.16939266 1.1610001
-0.26445085 -0.16781317 1.1621429
-0.25473288 -0.16528372 1.1653482
-0.2472776 -0.16382851 1.1686363
0.14386386 -0.16511053 1.1650002
-0.25139907 -0.15979616 1.161
-0.24393564 -0.1558913 1.1631176
-0.23489383 -0.1535335 1.1664286
-0.22782594 -0.15103257 1.168
0.13913576 -0.15243743 1.1670001
0.14229406 -0.15583442 1.1631819
-0.23424169 -0.14845487 1.1610001
-0.22473779 -0.14530516 1.1633158
-0.21547368 -0.14471389 1.1661114
-0.20582974 -0.14234135 1.1681112
-0.19650987 -0.1411694 1.169
-0.18856749 -0.1404008 1.169
0.13913576 -0.14527594 1.1669999
0.14205718 -0.14641924 1.1610001
-0.21353653 -0.13801502 1.1610001
-0.20495877 -0.13537639 1.1626366
-0.19473661 -0.13458587 1.163
-0.1849041 -0.13453536 1.1639475
-0.17570065 -0.13315989 1.1666
-0.16807103 -0.13015257 1.169
0.13796365 -0.13709225 1.1632859
-0.20356199 -0.12926187 1.161
-0.19352932 -0.12868026 1.1610001
-0.18377127 -0.12835714 1.1610001
-0.17430766 -0.12808502 1.1614001
-0.16454861 -0.12523037 1.1634443
-0.15484825 -0.12372854 1.1652355
-0.14489907 -0.12281857 1.1685556
-0.13732633 -0.12195398 1.169
-0.1618318 -0.11908377 1.161
-0.15572493 -0.11908378 1.161
-0.1444274 -0.11812198 1.1624546
-0.13536866 -0.11530977 1.1648262
-0.12745966 -0.11264881 1.1655
-0.13129748 -0.10890567 1.161
-0.12453037 -0.10691126 1.1630001
-0.11528885 -0.10448009 1.1638
-0.10559162 -0.10311027 1.1661428
-0.095617548 -0.10221417 1.1672221
-0.086085163 -0.10145751 1.169
-0.112468 -0.098218665 1.161
-0.1048702 -0.095708162 1.1614
-0.094688773 -0.095035344 1.1635
-0.084803082 -0.095028609 1.1654801
-0.075091213 -0.094368391 1.1657622
-0.065651134 -0.092278615 1.1681111
-0.058414929 -0.091209278 1.169
-0.082442611 -0.088549472 1.161
-0.072943054 -0.087870926 1.1610001
-0.063902766 -0.086002856 1.1632224
-0.054282758 -0.084921964 1.1646667
-0.045383457 -0.084438786 1.1660001
-0.036098756 -0.082724765 1.1669999
-0.026038012 -0.082523257 1.1665385
-0.016810836 -0.081720732 1.1672858
-0.045038093 -0.077608012 1.1610001
-0.035671037 -0.076442823 1.1626
-0.025474472 -0.076425761 1.1623334
-0.014817541 -0.075179391 1.1640477
-0.0053970781 -0.074175484 1.1677276
0.0048650615 -0.072973303 1.1682501
0.015347023 -0.073337354 1.1672224
0.025054403 -0.072087564 1.1663333
0.035185602 -0.071054414 1.169
0.045092225 -0.070712812 1.169
0.053290814 -0.071737632 1.169
-0.0030534298 -0.068193272 1.161
0.005861612 -0.067518018 1.1625
0.014394742 -0.067611657 1.1610001
0.02660927 -0.067139894 1.1623335
0.035729427 -0.065334991 1.1644003
0.044939686 -0.064348921 1.165
0.054181825 -0.064408176 1.1661204
0.060257684 -0.062300313 1.1650001
0.04885488 -0.058015171 1.161
0.054961741 -0.058015171 1.161
0.060050789 -0.058015171 1.161
0.049872689 0.11908377 1.161
0.052926119 0.11908377 1.161
0.04265305 0.12522863 1.1676668
0.054625694 0.12513657 1.1664737
0.062120888 0.1283171 1.1616668
0.054500617 0.13215698 1.1686
0.062072575 0.1340249 1.1650001
-0.26247838 0.31967211 1.1650001
-0.25872728 0.31694603 1.161
-0.26409858 0.32588768 1.1686922
-0.25533319 0.32580051 1.165
-0.24936345 0.32773483 1.161
-0.26367238 0.33218914 1.169
-0.25412312 0.33473584 1.1661428
-0.24732782 0.33452022 1.1610001
-0.25196013 0.34390143 1.169
-0.24903207 0.34331584 1.169
0.10834285 -0.48393139 1.177
0.11387763 -0.48240376 1.1732858
0.12031461 -0.48434344 1.1730001
0.10834285 -0.47774038 1.177
0.11454137 -0.47540796 1.175182
0.1218571 -0.47406009 1.1730002
0.11778653 -0.46676427 1.1760001
0.12376014 -0.46562734 1.1740001
0.12460326 -0.45555297 1.1746844
0.1305979 -0.45246521 1.1730001
0.12682894 -0.44668517 1.1762002
0.13438049 -0.44457448 1.1744401
0.14176263 -0.44379786 1.1730002
0.12723339 -0.43440321 1.177
0.13503282 -0.43455818 1.1733638
0.14190954 -0.43601191 1.1730002
0.127635 -0.42570865 1.1765001
0.13383114 -0.42478681 1.1738423
0.13538377 -0.41526791 1.1751055
0.14088121 -0.41236034 1.1730001
0.13712505 -0.40614462 1.176077
0.1422523 -0.40276259 1.1730002
0.13811871 -0.39342457 1.177
0.14362845 -0.39501959 1.1738573
0.13592093 -0.38518909 1.1765556
0.14362341 -0.38573804 1.1730002
0.13750842 -0.37557063 1.1755714
0.1433235 -0.37482625 1.1730002
0.13929795 -0.36836568 1.177
0.14551851 -0.36510488 1.1746924
0.14607148 -0.35426268 1.1743335
0.13929795 -0.34566528 1.177
0.14325501 -0.34489447 1.1735002
0.13929795 -0.3374106 1.177
0.1446806 -0.33410141 1.1742729
0.14514318 -0.32493833 1.1751055
0.14722827 -0.31505093 1.1744287
0.14569275 -0.30448562 1.1747144
0.1454311 -0.29512185 1.1743915
0.1453701 -0.28498206 1.1744001
0.14674096 -0.27525792 1.1744119
0.14473957 -0.26434156 1.1748824
0.13929795 -0.25486365 1.177
0.14332649 -0.25487229 1.1750001
0.14412445 -0.2453429 1.1747144
-0.40138447 -0.23009957 1.177
-0.39519343 -0.23009959 1.177
-0.38556299 -0.23009957 1.177
-0.36630201 -0.23009957 1.177
0.14496137 -0.23518024 1.1742729
-0.40070453 -0.22453661 1.1738001
-0.39509556 -0.22586995 1.1746668
-0.3847906 -0.22623396 1.1744547
-0.37482145 -0.22499347 1.1744119
-0.36428338 -0.22474985 1.174412
-0.35639638 -0.22267036 1.177
0.14588763 -0.22578101 1.1740001
-0.35538471 -0.21645804 1.1738892
-0.34496117 -0.21583395 1.1746001
-0.33409891 -0.21347158 1.1740668
-0.3249073 -0.21288401 1.1748463
-0.31780571 -0.21152651 1.177
0.1433371 -0.2152141 1.1746001
-0.32392395 -0.20772266 1.1730002
-0.31502011 -0.20582344 1.173889
-0.30503845 -0.20399547 1.1748948
-0.29533762 -0.20278154 1.1750001
-0.28994611 -0.20120814 1.177
0.13929795 -0.20533548 1.177
0.14195758 -0.20470746 1.1734002
-0.30130067 -0.19846769 1.1730001
-0.29435945 -0.19769643 1.1730002
-0.28520396 -0.19435148 1.1738573
-0.27622688 -0.19174716 1.1752224
-0.26930937 -0.19088978 1.177
0.13929795 -0.19501713 1.177
0.14165245 -0.19512561 1.1730002
-0.27362931 -0.18668862 1.1730002
-0.26530981 -0.18497507 1.1748825
-0.25456885 -0.18175066 1.177
0.13929795 -0.18469876 1.177
0.14088121 -0.18509939 1.1730001
-0.26222414 -0.17878251 1.1730002
-0.254875 -0.17607248 1.1737062
-0.2457542 -0.17361972 1.1755265
-0.23835427 -0.17128488 1.177
0.13929795 -0.17438039 1.177
0.14146884 -0.17496301 1.1730002
-0.24354985 -0.16609973 1.1748668
-0.23505372 -0.16445947 1.1765556
-0.2255595 -0.16241109 1.177
-0.21978121 -0.16199836 1.177
0.13929795 -0.16406202 1.177
0.14088121 -0.16658947 1.1730001
-0.23471631 -0.15861991 1.1730002
-0.22507244 -0.15591691 1.1742729
-0.21566628 -0.1552673 1.1756089
-0.20621993 -0.15226962 1.177
-0.19914448 -0.15167999 1.177
0.13697362 -0.15551317 1.1747779
-0.21286432 -0.14910784 1.1730001
-0.20444205 -0.14727072 1.1735716
-0.19508389 -0.14582022 1.1745386
-0.18540438 -0.14280578 1.1756668
-0.17438039 -0.14136162 1.177
0.13530871 -0.14482257 1.1754616
-0.18201441 -0.13882455 1.1730001
-0.17437457 -0.13782091 1.1746668
-0.16519618 -0.13507567 1.1752859
-0.1563974 -0.13277692 1.1754616
-0.14548898 -0.13104326 1.177
-0.13929795 -0.13104326 1.177
0.13337044 -0.13807838 1.174143
-0.1542495 -0.12854125 1.1730001
-0.14470984 -0.12731217 1.1737275
-0.13459736 -0.12510103 1.1750002
-0.12485223 -0.12072489 1.177
-0.12383017 -0.11614075 1.1751335
-0.11491235 -0.11373812 1.1758573
-0.10515354 -0.11190739 1.177
-0.09802448 -0.11040653 1.177
-0.11003131 -0.10797465 1.1730001
-0.10357525 -0.10769323 1.1736668
-0.095004193 -0.1067545 1.1754001
-0.085293531 -0.10591098 1.1757501
-0.075969681 -0.10409151 1.1755716
-0.065464295 -0.10100535 1.177
-0.055719178 -0.10008816 1.177
-0.072497264 -0.099233843 1.1730001
-0.063947804 -0.096346378 1.1748184
-0.054401271 -0.094975799 1.1755265
-0.0456242 -0.093595408 1.1755456
-0.035770338 -0.092521347 1.177
-0.026827754 -0.091833465 1.177
-0.040790424 -0.088779151 1.1730001
-0.034645382 -0.088161409 1.173889
-0.025234995 -0.088073589 1.1750001
-0.015603416 -0.086256742 1.1752859
-0.0050192457 -0.0836614 1.1745001
0.0051584821 -0.082490824 1.1762002
0.013929795 -0.082031012 1.177
-0.00308499 -0.07918141 1.1730001
0.0055986852 -0.078267343 1.1730002
0.015457012 -0.078748085 1.1752857
0.025916165 -0.077408068 1.1746668
0.035240419 -0.075223781 1.1754001
0.044317309 -0.075240605 1.1756668
0.052252207 -0.076688416 1.1752859
0.047645956 0.12717015 1.1730001
0.051416501 0.12854125 1.1730001
0.057243705 0.13676789 1.1730001
0.060671471 0.13882455 1.1730001
0.058060169 0.14188938 1.1756667
0.061425984 0.14172925 1.1743335
-0.27096498 0.33677804 1.1730001
-0.263987 0.33552936 1.1730002
-0.25811082 0.33832055 1.1730001
-0.27240488 0.34153792 1.177
-0.26353192 0.34440383 1.1755884
-0.25705287 0.34554955 1.1738002
-0.25575539 0.35302752 1.1754
0.086515605 -0.49094999 1.189
0.086664505 -0.4849937 1.189
0.094163872 -0.48500431 1.1837825
0.10370947 -0.4847835 1.183
0.08672408 -0.47531468 1.189
0.094740756 -0.47509491 1.1847036
0.10449618 -0.47429308 1.1836665
0.1115982 -0.47195587 1.1823334
0.09558405 -0.46601242 1.1865555
0.10512672 -0.46471334 1.1863332
0.11437766 -0.46431139 1.1831818
0.099023886 -0.45967928 1.189
0.10755227 -0.4564575 1.189
0.1153135 -0.45490623 1.1841303
0.12217051 -0.45244503 1.1810001
0.10944745 -0.44925573 1.189
0.11541867 -0.44553992 1.1869256
0.12463199 -0.44474655 1.1825557
0.10559874 -0.43305916 1.189
0.11551882 -0.43503228 1.1871665
0.12258272 -0.43475056 1.1830001
0.10713111 -0.42562896 1.189
0.11563101 -0.42455629 1.1875182
0.12418725 -0.424317 1.1831052
0.11675781 -0.4153665 1.1885293
0.125866 -0.41475296 1.1844072
0.13148861 -0.41517273 1.1810001
0.11830748 -0.40912497 1.189
0.12614278 -0.40593177 1.1881998
0.13375369 -0.40451014 1.18275
0.12703635 -0.39517325 1.1877998
0.13433857 -0.39611486 1.1818001
0.11987101 -0.38671431 1.189
0.12653559 -0.38491496 1.1875453
0.13148861 -0.38514772 1.1810001
0.12705792 -0.37441075 1.1879998
0.13334867 -0.37488458 1.18375
0.12691522 -0.36574337 1.1886001
0.13535103 -0.3649483 1.1848619
0.14184204 -0.3634055 1.1810001
0.1270517 -0.35498035 1.189
0.13445638 -0.35503814 1.1868459
0.14120352 -0.35716161 1.1843334
0.127131 -0.344749 1.1886667
0.1340064 -0.34458759 1.1849999
0.12688324 -0.33497551 1.189
0.13460733 -0.33479232 1.1844283
0.12731643 -0.32447076 1.189
0.13466494 -0.32485673 1.1859332
0.14161725 -0.32242662 1.1826001
0.13575056 -0.31518137 1.1861111
0.14212517 -0.31534323 1.182143
0.13654506 -0.3044292 1.1855713
0.14253227 -0.30887744 1.1810001
0.13540646 -0.29489988 1.1856399
0.14184204 -0.29093146 1.1810001
0.13495706 -0.28517517 1.1860665
0.14144272 -0.28236866 1.1820002
0.12820987 -0.27309746 1.189
0.13468707 -0.2748557 1.1862172
0.14190733 -0.27517691 1.183
0.12751497 -0.26753822 1.189
0.13476208 -0.26523474 1.1851426
0.14184204 -0.26711857 1.1810001
0.13559392 -0.2553806 1.1854444
-0.39161134 -0.24280687 1.187
-0.38492742 -0.24257128 1.189
-0.37420607 -0.24167785 1.189
-0.36690956 -0.24078439 1.189
0.1350278 -0.24515855 1.1858886
-0.40067786 -0.23295225 1.1810001
-0.39403012 -0.23575875 1.1825999
-0.38571852 -0.23538488 1.18475
-0.37549055 -0.23442677 1.1831999
-0.36485094 -0.23462088 1.1844285
-0.35479596 -0.23487642 1.1872221
-0.34486392 -0.23317513 1.1884667
-0.33491722 -0.23212481 1.189
-0.32599705 -0.23166376 1.189
0.13552962 -0.23542055 1.1859998
0.14104339 -0.23127255 1.1830001
-0.36133483 -0.22777553 1.1810001
-0.3538335 -0.22655979 1.1828947
-0.34533209 -0.22451723 1.184
-0.33514291 -0.22447187 1.1846189
-0.32436681 -0.22458817 1.186739
-0.31526548 -0.2241067 1.189
-0.30573124 -0.22378598 1.189
-0.29846147 -0.22271688 1.189
0.13597631 -0.22552083 1.1876667
0.14104338 -0.22504997 1.1830001
-0.34269863 -0.21845745 1.1810001
-0.33441588 -0.21845745 1.1810001
-0.32423401 -0.21818294 1.1827143
-0.31480759 -0.21561079 1.1841302
-0.30487993 -0.21510504 1.1853198
-0.29505903 -0.21493648 1.1863911
-0.28535354 -0.21359414 1.1884999
-0.27622452 -0.21211958 1.189
0.13631412 -0.21476801 1.1852
0.1413096 -0.21801384 1.1823335
-0.3033556 -0.20810401 1.1810001
-0.29403037 -0.20731726 1.1815716
-0.28544125 -0.20552102 1.1839999
-0.2755169 -0.20482202 1.1859598
-0.26648062 -0.20321119 1.1887143
-0.25954682 -0.20117484 1.189
0.13514876 -0.20496401 1.1849998
-0.28394294 -0.19904475 1.1810001
-0.27431592 -0.19630703 1.1828463
-0.26494935 -0.19534114 1.1852
-0.25549114 -0.19427669 1.1875999
-0.24912326 -0.19283597 1.189
0.13490583 -0.19471589 1.1859522
-0.2626321 -0.18877761 1.1810001
-0.2553809 -0.1868218 1.1826001
-0.24575803 -0.18390262 1.186
-0.23631714 -0.18151896 1.189
0.12813681 -0.18265758 1.1883334
0.13439859 -0.18529981 1.1847999
-0.24347976 -0.17798099 1.1832858
-0.23525658 -0.17502116 1.1847998
-0.22677942 -0.17262508 1.1880001
-0.21785255 -0.17198884 1.189
0.12790079 -0.17580523 1.1879092
0.13447037 -0.17514572 1.1840909
-0.23157179 -0.16807073 1.1810001
-0.22480449 -0.16716377 1.1832857
-0.21517922 -0.16528906 1.1857618
-0.20635834 -0.16356584 1.1883848
0.12716751 -0.16573471 1.189
0.13407049 -0.16548672 1.1848398
-0.21017469 -0.15737218 1.1810001
-0.204384 -0.15698394 1.1834615
-0.1946335 -0.15518953 1.1867598
-0.18502769 -0.15440062 1.1883998
-0.17615828 -0.15233299 1.189
-0.16781943 -0.15114172 1.189
0.12678356 -0.15423912 1.1882941
0.13280872 -0.15549448 1.1835716
-0.19257386 -0.14805409 1.1810001
-0.18439369 -0.14685395 1.1830001
-0.1753653 -0.1463163 1.1836667
-0.16555326 -0.14512484 1.1852221
-0.15643837 -0.14255023 1.1883334
-0.14592993 -0.14071815 1.189
0.12760247 -0.14596133 1.1850002
0.13190274 -0.14556928 1.1810001
-0.16047822 -0.13977134 1.1810001
-0.15374716 -0.13673738 1.1834
-0.14449529 -0.13618542 1.1858001
-0.13591911 -0.13422045 1.1868182
-0.12612516 -0.13098948 1.189
-0.13252395 -0.12941791 1.1810001
-0.12584203 -0.12596716 1.1828823
-0.11561305 -0.12427363 1.1845555
-0.10623398 -0.1228852 1.1867778
-0.11233475 -0.11854681 1.1810001
-0.10390453 -0.1170802 1.1818572
-0.094409868 -0.11516611 1.1834347
-0.084590048 -0.11448896 1.1847777
-0.076092191 -0.11258528 1.1860909
-0.066363372 -0.11187961 1.189
-0.059414331 -0.11153216 1.189
-0.073854491 -0.10802082 1.1810001
-0.065063134 -0.10654173 1.18275
-0.054850329 -0.1057045 1.1848094
-0.044722274 -0.10401317 1.1863997
-0.034748606 -0.10415107 1.1867998
-0.025437236 -0.10190486 1.1878573
-0.017705161 -0.10154474 1.188
-0.042909227 -0.096747085 1.1810001
-0.033688478 -0.096605495 1.181
-0.024621179 -0.096019618 1.1816154
-0.015276792 -0.094988823 1.1835454
-0.0054098181 -0.093288369 1.1843684
0.0049711866 -0.09325815 1.1863333
0.015137539 -0.092355147 1.1877694
0.024857132 -0.09153489 1.1884286
0.034050319 -0.091032483 1.189
0.043415554 -0.092272572 1.1885556
-0.012424121 -0.088004179 1.1810001
-0.0056943884 -0.088004179 1.1810001
0.0051823272 -0.087028459 1.1818
0.015937692 -0.085656568 1.1824999
0.02489032 -0.085045427 1.1830002
0.034248736 -0.085103646 1.1838
0.044428039 -0.084979035 1.1843684
0.052042969 -0.083149552 1.1826001
0.034511443 -0.079376325 1.1810001
0.044519763 -0.079721436 1.1810001
0.053837851 -0.079721436 1.1810001
0.056253653 0.1383909 1.1810001
0.05649345 0.14560083 1.1846001
0.061915752 0.14769816 1.1836667
0.057281397 0.15283872 1.1880001
0.062471271 0.15305693 1.1876668
-0.27426079 0.34697768 1.1850001
-0.26815394 0.34684002 1.1810001
-0.27300593 0.35532546 1.1886001
-0.26625293 0.35511774 1.1842002
-0.25987118 0.35512277 1.1810001
-0.27205509 0.36169776 1.189
-0.26527232 0.36325893 1.1872858
0.076604009 -0.49215454 1.197
0.081577346 -0.49155575 1.1930001
0.077391036 -0.485596 1.197
0.082167774 -0.48411593 1.1939999
0.078702748 -0.47956207 1.197
0.083631516 -0.47457036 1.1950001
0.086442299 -0.46577063 1.1962384
0.0933422 -0.46312118 1.1944286
0.10249461 -0.46122572 1.1930001
0.086603895 -0.45474756 1.1970003
0.095355332 -0.45479098 1.1953336
0.10429597 -0.45392337 1.1936668
0.088296995 -0.4453826 1.1969999
0.095553741 -0.44464532 1.1943916
0.10573824 -0.44419321 1.1931742
0.089196451 -0.43548855 1.197
0.09523391 -0.43533108 1.1950003
0.10503457 -0.43612501 1.193
0.096983798 -0.42558107 1.1960002
0.10449427 -0.42431134 1.1938423
0.097591408 -0.41659987 1.197
0.10608894 -0.41585746 1.1952502
0.11203089 -0.41264418 1.1943334
0.10178889 -0.40820491 1.197
0.11614475 -0.40598026 1.1962503
0.12158161 -0.40344179 1.193
0.11640128 -0.39534906 1.1962001
0.12120395 -0.39475533 1.193
0.11572647 -0.38505635 1.1960001
0.12132015 -0.38383183 1.193
0.1162746 -0.37556827 1.1962502
0.12133505 -0.37523401 1.194091
0.11787923 -0.36623013 1.197
0.1233267 -0.36434963 1.1945385
0.11857881 -0.35521173 1.197
0.12299034 -0.35432076 1.194
0.11857881 -0.34524274 1.197
0.12215181 -0.34534398 1.1943332
0.12254374 -0.33451024 1.1947502
0.12424427 -0.32411471 1.1960002
0.11648007 -0.31481099 1.197
0.12600809 -0.31487051 1.1960591
0.13162936 -0.31331077 1.193
0.12620766 -0.30518401 1.1967649
0.13133053 -0.30524269 1.193
0.12717979 -0.29524291 1.1956667
0.13073291 -0.29597932 1.1930001
0.12587981 -0.2838465 1.1959336
0.1246368 -0.2752023 1.1947501
0.12523222 -0.26498467 1.1947143
-0.38197067 -0.25079942 1.197
-0.37263221 -0.25253019 1.1965001
-0.36649242 -0.25525922 1.197
-0.3532438 -0.25471053 1.1956667
0.12670062 -0.25505227 1.1958574
0.13073291 -0.25414479 1.1930001
-0.39010704 -0.24682374 1.1930001
-0.38484904 -0.24563704 1.194
-0.37501669 -0.24637552 1.193
-0.365493 -0.24485107 1.1946
-0.35479614 -0.24427179 1.1958572
-0.34500942 -0.24324608 1.1967144
-0.33579841 -0.24135509 1.197
-0.3284528 -0.24030572 1.197
0.12696962 -0.24525824 1.1955717
-0.3552449 -0.23950271 1.1930001
-0.3453441 -0.23824766 1.1930001
-0.33528528 -0.23692706 1.1935714
-0.32405925 -0.23536454 1.1950001
-0.3154619 -0.23240718 1.1955001
0.12834962 -0.23617962 1.1958572
0.13073291 -0.23322751 1.1930001
-0.31410763 -0.22834682 1.193
-0.3042042 -0.22854765 1.1945001
-0.29508576 -0.2241988 1.1955456
-0.28728455 -0.22123209 1.1960001
0.1290725 -0.22561455 1.197
0.1315721 -0.2241687 1.1934999
-0.28293476 -0.21830089 1.1947144
-0.2742883 -0.21532533 1.1945385
-0.26813874 -0.21220507 1.1963334
0.1290725 -0.21512084 1.197
0.13133055 -0.21529844 1.193
-0.26373476 -0.20719735 1.1943333
-0.25526971 -0.20482032 1.1956668
-0.24933101 -0.20114064 1.1950001
0.12872271 -0.20392758 1.197
0.13073291 -0.20498922 1.1930001
-0.25309891 -0.19871405 1.1930001
-0.24564412 -0.19473013 1.1953532
-0.23695861 -0.19292364 1.1960001
0.12765296 -0.19423448 1.1960001
0.13073291 -0.19662231 1.1930001
-0.24403478 -0.18860401 1.193
-0.23483807 -0.18645462 1.1941113
-0.22586718 -0.18459389 1.1950004
-0.21607481 -0.18306737 1.1970001
-0.20882463 -0.18154101 1.197
0.12519616 -0.18566121 1.1954616
-0.2311358 -0.17884263 1.1930001
-0.2241669 -0.17679372 1.1932857
-0.21422005 -0.17537862 1.1946367
-0.20488894 -0.17389767 1.195316
-0.19833092 -0.17209668 1.197
0.12357599 -0.17489342 1.1946
-0.20394334 -0.16718873 1.193
-0.19621494 -0.16514559 1.194778
-0.18532257 -0.16302054 1.1952857
-0.17635842 -0.16137643 1.1964285
-0.16894858 -0.1605536 1.197
0.12361701 -0.16447581 1.1949999
-0.18198022 -0.15792537 1.1930001
-0.17362134 -0.15591511 1.1936153
-0.16477413 -0.15445088 1.1950001
-0.15497823 -0.15288211 1.1965001
-0.14481306 -0.15110928 1.197
-0.13956621 -0.15005991 1.197
0.12252872 -0.15646237 1.1946001
-0.16210882 -0.14955845 1.1930001
-0.15426485 -0.14729242 1.193
-0.14551751 -0.14563489 1.1932224
-0.13633832 -0.14382482 1.1950001
-0.12697376 -0.14166495 1.197
-0.13292204 -0.13734338 1.1938889
-0.12411801 -0.13579027 1.194524
-0.1153996 -0.13415326 1.1960591
-0.10528678 -0.13117126 1.197
-0.097591408 -0.13117126 1.197
-0.11295325 -0.12864119 1.1930001
-0.10480893 -0.12727678 1.1944546
-0.095172226 -0.12551793 1.1954764
-0.084885351 -0.12471233 1.1954004
-0.074802406 -0.12315151 1.1958238
-0.065060943 -0.12172692 1.197
-0.056141295 -0.12067755 1.197
-0.073791467 -0.11725289 1.193
-0.064843528 -0.11609083 1.193
-0.05529787 -0.11539632 1.1948951
-0.045181647 -0.11493422 1.1954447
-0.03510334 -0.11369971 1.1953335
-0.025184881 -0.11228258 1.197
-0.018259037 -0.11102334 1.197
-0.044972125 -0.10981564 1.1930001
-0.03284011 -0.10939731 1.1930001
-0.025195796 -0.1069633 1.193
-0.015554319 -0.10501114 1.1944286
-0.0060807359 -0.1029801 1.1962
0.0052429927 -0.10273622 1.1958001
0.014953523 -0.10257591 1.197
0.02308614 -0.10178889 1.197
0.033929627 -0.10178889 1.197
0.041974798 -0.10178889 1.197
-0.0045320746 -0.099008389 1.193
0.0058269533 -0.098759376 1.193
0.016240103 -0.097953618 1.1950001
0.025232961 -0.09714634 1.1954615
0.03468449 -0.096558064 1.1951054
0.041681465 -0.097816885 1.1946001
0.047166716 0.15408556 1.1956667
0.054668713 0.15485309 1.1934999
0.062858753 0.15819012 1.1950001
0.059814088 0.16160297 1.197
0.062612407 0.16125318 1.197
-0.28088138 0.35643601 1.197
-0.27775797 0.35645741 1.1938001
-0.27464554 0.36591783 1.1952223
-0.26774102 0.36918977 1.1930001
-0.27283621 0.37147698 1.197
-0.2696881 0.37252635 1.197
0.068721898 -0.49479771 1.2060001
0.071655221 -0.49421033 1.202
0.068369478 -0.48528239 1.2060002
0.072998375 -0.48507175 1.2027057
0.068721898 -0.47893879 1.2060001
0.074836984 -0.4752596 1.2036922
0.081139006 -0.47313523 1.202
0.075185135 -0.46494296 1.203565
0.081741147 -0.46440414 1.202
0.075977407 -0.45601571 1.2037499
0.082042217 -0.45476982 1.202
0.077081792 -0.44560656 1.2045
0.083742388 -0.44536576 1.2019999
0.07873299 -0.43593696 1.2055001
0.084445141 -0.43498251 1.2027272
0.091676541 -0.43203887 1.202
0.079294503 -0.42819029 1.2060001
0.086236343 -0.42516512 1.2031426
0.092466854 -0.42387229 1.202
0.10432158 -0.42044759 1.202
0.087009162 -0.41555554 1.2043529
0.094135307 -0.41447628 1.2019999
0.10476789 -0.4137989 1.2027272
0.08916226 -0.40669271 1.2060002
0.09529639 -0.40575609 1.2041818
0.10463043 -0.40538925 1.2035999
0.11158077 -0.40522668 1.202
0.096739292 -0.39805838 1.2060001
0.10434585 -0.39480698 1.2041537
0.11158077 -0.39562583 1.202
0.1048217 -0.38494959 1.2042856
0.11143441 -0.38541028 1.202
0.10448533 -0.37536931 1.2049563
0.11228327 -0.37431657 1.202
0.097972758 -0.36404982 1.2060002
0.10471256 -0.36498407 1.2046151
0.11401369 -0.36532357 1.2021817
0.12118163 -0.36354488 1.202
0.097267918 -0.35841113 1.2060001
0.10500187 -0.35565877 1.2055293
0.11433802 -0.35546765 1.2031999
0.12118163 -0.35827613 1.202
0.10725316 -0.34736866 1.2060002
0.11500472 -0.34493381 1.203565
0.11538231 -0.33538914 1.2041999
0.10889778 -0.32140702 1.2060001
0.11558565 -0.3247633 1.2033333
0.12118163 -0.3249073 1.202
0.10889778 -0.31506348 1.2060001
0.11510106 -0.31496856 1.2035235
0.12118163 -0.31507224 1.202
0.10889778 -0.30766267 1.2060001
0.11505365 -0.30506086 1.2040797
0.12249881 -0.30558845 1.202
-0.29145133 -0.29427072 1.2060001
-0.28757471 -0.29391828 1.2060001
0.10889778 -0.29814732 1.2060001
0.11538452 -0.29506937 1.2056665
0.12328912 -0.29505092 1.2019999
0.11539753 -0.2847974 1.2056363
0.12249881 -0.28714782 1.202
0.11714821 -0.27536002 1.2054287
0.12118163 -0.27819088 1.202
-0.3440702 -0.26128477 1.2030001
-0.33726594 -0.26114321 1.2060001
0.11768116 -0.26537225 1.2060002
0.12211829 -0.26402375 1.202
-0.36424735 -0.25430581 1.2019999
-0.35513097 -0.25448921 1.2025332
-0.34509337 -0.25539321 1.2038
-0.33521053 -0.25434962 1.2052001
-0.32810304 -0.25127545 1.2060001
0.11695938 -0.25413883 1.2060001
0.12223537 -0.25500831 1.202
-0.36396641 -0.24931803 1.202
-0.3559579 -0.24931803 1.202
-0.34457737 -0.24826428 1.2019999
-0.33502331 -0.24678904 1.2019999
-0.32514164 -0.24491614 1.2041818
-0.31497553 -0.24416013 1.2056669
-0.30672288 -0.24328727 1.2060002
0.11754809 -0.24557263 1.2060002
0.12252276 -0.24514133 1.2019999
-0.32350227 -0.23920201 1.202
-0.31434122 -0.23731783 1.2023076
-0.30500793 -0.23631585 1.2046666
-0.295688 -0.23450893 1.2055556
-0.28609458 -0.23196284 1.2060001
0.11841313 -0.23576896 1.2060002
0.12403643 -0.23472142 1.2024443
-0.29357567 -0.22782147 1.202
-0.28491455 -0.22650345 1.2034736
-0.27498946 -0.22483239 1.2046
-0.26574358 -0.22382236 1.2055554
-0.25733706 -0.22181313 1.2060001
0.11853059 -0.22543134 1.2060002
0.12478749 -0.22490546 1.2039046
-0.2708146 -0.21812694 1.202
-0.26392317 -0.21544228 1.2022352
-0.25482264 -0.21470088 1.2044444
-0.24528429 -0.21208635 1.2060002
-0.23999801 -0.21145201 1.2060001
0.11841311 -0.21462378 1.2060002
0.12427594 -0.21486636 1.2031763
-0.25500831 -0.20969692 1.202
-0.24555846 -0.20481157 1.203263
-0.23738101 -0.20377275 1.2056001
0.11777876 -0.20468554 1.2060002
0.12436528 -0.20552029 1.2022221
-0.24299553 -0.19831638 1.202
-0.2344873 -0.19677222 1.2035
-0.22489652 -0.1947031 1.2043998
-0.21650337 -0.19300869 1.2060002
0.11768116 -0.19543044 1.2060002
0.12328912 -0.19569704 1.2019999
-0.22234195 -0.18862183 1.202
-0.21348973 -0.18754496 1.2032
-0.20597436 -0.18351038 1.2040001
-0.19823626 -0.18132007 1.2060001
0.11812477 -0.18463603 1.2060002
0.12153288 -0.18510933 1.202
-0.20232064 -0.17808431 1.202
-0.19507557 -0.17532909 1.204353
-0.1855491 -0.17180474 1.2060002
-0.17535412 -0.17082299 1.2060002
0.1170638 -0.17454283 1.2045716
0.12118163 -0.17492306 1.202
-0.19283687 -0.16965429 1.202
-0.18440683 -0.16754678 1.202
-0.17478317 -0.16585763 1.2038462
-0.1656155 -0.16429962 1.2042501
-0.15723795 -0.1633458 1.2055557
0.11703549 -0.16484866 1.2042857
0.12118163 -0.16543928 1.202
-0.16375327 -0.15827374 1.202
-0.15454377 -0.15771204 1.2033334
-0.14463924 -0.15625456 1.2042857
-0.13623421 -0.15313476 1.2046666
0.11758906 -0.15872225 1.2030001
0.12118163 -0.15911674 1.202
-0.13246346 -0.1475075 1.2040001
-0.1252398 -0.14462817 1.2041818
-0.11508705 -0.1419085 1.2044002
-0.10466874 -0.14121974 1.2060002
-0.11117098 -0.13646105 1.202
-0.10449385 -0.13589911 1.204
-0.094717078 -0.13559254 1.2042857
-0.085741721 -0.13428803 1.2037498
-0.075462058 -0.13253656 1.2056001
-0.067664638 -0.13004299 1.2060001
-0.074816488 -0.12855791 1.202
-0.0639522 -0.12627873 1.2030909
-0.055078864 -0.1245105 1.2035999
-0.046232596 -0.12265197 1.2040002
-0.036960851 -0.12145048 1.2046667
-0.044257641 -0.11907413 1.202
-0.034009844 -0.11838286 1.2030001
-0.024280321 -0.11718085 1.204182
-0.014604683 -0.11455638 1.2043334
-0.0052792863 -0.11297908 1.2043999
0.0045808754 -0.11130335 1.2053334
-0.01264504 -0.10853659 1.202
-0.0044257641 -0.10727209 1.2019999
0.0052687665 -0.10748284 1.2019999
0.015121332 -0.10725199 1.2033334
0.024263211 -0.10570555 1.2033333
0.03495992 -0.10612278 1.2041177
0.042150132 -0.10432158 1.202
0.043203887 0.15595549 1.202
0.06006394 0.16543928 1.202
-0.28275713 0.35651985 1.202
-0.28364551 0.3659614 1.2037778
-0.27924463 0.36881366 1.202
-0.28228846 0.37511587 1.2060002
-0.27525958 0.37615284 1.2029999
-0.28228843 0.38167086 1.2060001
-0.27488759 0.38167086 1.2060001
0.055363346 -0.49469256 1.2182106
0.063758738 -0.49521407 1.2121999
0.056558434 -0.48521629 1.2173332
0.063791938 -0.48480421 1.211647
0.057277896 -0.47540015 1.2186154
0.064527124 -0.47528255 1.2130802
0.055926356 -0.46486568 1.219
0.06500309 -0.46474686 1.2141482
0.057351239 -0.45512903 1.219
0.065286741 -0.45472407 1.2157393
0.071966968 -0.4543069 1.2108001
0.057707459 -0.44883579 1.2190001
0.064940274 -0.44521332 1.2162728
0.072579935 -0.44376025 1.2104
0.06714429 -0.43549192 1.2178888
0.07391762 -0.4345156 1.2127897
0.0680378 -0.42520663 1.219
0.07561297 -0.42471954 1.2134583
0.081679031 -0.42430666 1.21
0.067632265 -0.41606948 1.2186153
0.075539552 -0.4150039 1.2151251
0.083164103 -0.41348681 1.21
0.068852022 -0.40563157 1.219
0.075882219 -0.40558112 1.21775
0.084350891 -0.40427992 1.214
0.091579527 -0.40273774 1.21
0.07606893 -0.39491722 1.219
0.084280103 -0.39453873 1.217
0.093867183 -0.39495394 1.2121668
0.084682658 -0.3850567 1.2185454
0.094878443 -0.38522968 1.2123637
0.10077284 -0.38293678 1.21
0.084409334 -0.37503654 1.2187999
0.094422124 -0.37540111 1.2125001
0.086294033 -0.3646791 1.219
0.093138598 -0.36552462 1.2125001
0.086561196 -0.35479403 1.219
0.094640426 -0.35488221 1.2140372
0.10224271 -0.35378113 1.2106668
0.1113805 -0.35111377 1.21
0.087511107 -0.34636348 1.219
0.094831884 -0.34499839 1.21775
0.10435885 -0.34449682 1.2114738
0.088698506 -0.33769551 1.2190001
0.094825983 -0.33466777 1.2166089
0.10516997 -0.33509186 1.2137603
0.1113805 -0.33414149 1.21
0.088698506 -0.3227343 1.2190001
0.095487401 -0.32528061 1.2176362
0.10490105 -0.32535022 1.214524
0.1113805 -0.32777691 1.21
0.095693342 -0.31554514 1.219
0.10443244 -0.31518579 1.2134118
0.096658394 -0.30420819 1.2169999
0.10459191 -0.30480108 1.2118182
-0.3030405 -0.29723921 1.219
-0.29461908 -0.29461908 1.2150002
-0.28841808 -0.29267517 1.2140001
0.097286731 -0.29498532 1.2174615
0.1048703 -0.2944634 1.2126087
0.1113805 -0.29171082 1.21
0.09722057 -0.28525212 1.2186666
0.10551628 -0.28496245 1.2147918
0.1113805 -0.28216392 1.21
-0.3109791 -0.27464476 1.2190001
-0.30349848 -0.27411044 1.219
-0.29744276 -0.27393234 1.2190001
0.097782083 -0.27517909 1.219
