# .PCD v0.7 - Point Cloud Data file format
VERSION 0.7
FIELDS x y z
SIZE 4 4 4
TYPE F F F
COUNT 1 1 1
WIDTH 1455
HEIGHT 1
VIEWPOINT 0 0 0 1 0 0 0
POINTS 1455
DATA ascii
-0.24301198 -0.055756003 1.6800002
-0.23417521 -0.055966403 1.6800002
-0.22533841 -0.055966403 1.6800002
-0.21462712 -0.054761384 1.6800002
-0.2049343 -0.054554384 1.6817778
-0.19531368 -0.054908022 1.6843636
-0.18597345 -0.053612549 1.6869999
0.33834186 -0.054661918 1.6853334
0.3682 -0.053020798 1.6800001
0.3747566 -0.054585651 1.6830001
0.38179183 -0.053273279 1.6880001
-0.32111949 -0.042914588 1.6880001
-0.3137064 -0.048602398 1.6799999
-0.20471922 -0.0456568 1.6800002
-0.19588239 -0.0456568 1.6800002
-0.18600766 -0.045765504 1.684
-0.17807086 -0.043901131 1.6880001
0.33887729 -0.045874212 1.6880001
0.34102684 -0.044292703 1.684
0.3578904 -0.042711198 1.6800001
0.36543205 -0.04580174 1.6853334
0.37380081 -0.047649987 1.6880001
-0.32111949 -0.038475148 1.6880001
-0.3195976 -0.0338744 1.6800001
-0.19293679 -0.0397656 1.6800001
-0.18551016 -0.035690378 1.6821334
-0.17509273 -0.03511522 1.6849232
-0.16477057 -0.033725016 1.6872
0.3363688 -0.036441281 1.6853333
0.34267148 -0.035838131 1.6800002
0.35612303 -0.03564176 1.6800001
0.36403406 -0.038475148 1.6880001
-0.1826272 -0.0279832 1.6800001
-0.17526321 -0.027983198 1.6799999
-0.16451876 -0.025653372 1.6816002
-0.1561203 -0.022937108 1.6880001
-0.14452843 -0.0221972 1.6880001
-0.13466303 -0.0221972 1.6880001
-0.12578413 -0.0221972 1.6880001
-0.11838506 -0.0221972 1.6880001
-0.094708048 -0.0221972 1.6880001
-0.087308988 -0.0221972 1.6880001
0.32999837 -0.0221972 1.6880001
0.33341384 -0.026103625 1.6853334
0.34905359 -0.0250376 1.6800001
-0.15427229 -0.018455585 1.6840001
-0.14474396 -0.016841818 1.6847999
-0.13467541 -0.014641681 1.6824619
-0.12567256 -0.01516155 1.6829091
-0.11469004 -0.015396268 1.6834286
-0.10494226 -0.014785861 1.686
-0.094942287 -0.01508755 1.6869333
-0.085019134 -0.014050044 1.6866666
-0.075470485 -0.013318319 1.688
-0.065246314 -0.013049263 1.6879998
-0.055345017 -0.011542544 1.6880001
-0.04883384 -0.010358693 1.6880001
0.32999837 -0.017757758 1.6880001
0.33138001 -0.016200799 1.6800001
-0.095731996 -0.0073639997 1.6799999
-0.088367999 -0.0073639997 1.6800001
-0.075112797 -0.0073639997 1.6799999
-0.063691206 -0.005076874 1.6808891
-0.054607373 -0.0044324268 1.6835556
-0.0458485 -0.004438661 1.687111
-0.036107443 -0.0038475145 1.688
-0.02574875 -0.0026636641 1.6880001
-0.014784106 -0.0029578733 1.686
-0.0029596267 -0.0014798134 1.6880001
0.0044394401 -0.0014798134 1.6880001
0.2695224 -0.0014728 1.6800001
0.27500856 -0.0022109533 1.682
-0.044183999 0.0014728 1.6800001
-0.035347201 0.0014728 1.6800001
-0.025072666 0.0014751378 1.6826668
-0.0176736 0.0014728 1.6800001
-0.0044183997 0.0029456001 1.6800002
0.0048442096 0.0035778019 1.681143
0.014788781 0.0044335951 1.6866666
0.023183743 0.0064125247 1.6880001
0.26716593 0.0032401599 1.6800001
0.2754136 0.0029456001 1.6800002
0.28443626 0.003933311 1.684
0.29354772 0.0063891467 1.6826668
0.30386904 0.0064008352 1.6853334
0.3137134 0.0022127067 1.6840001
0.0191464 0.0103096 1.6800001
0.025677215 0.011507478 1.6832001
0.035319783 0.013559323 1.685091
0.045777585 0.01328559 1.6844445
0.055025607 0.01243464 1.6834286
0.064542435 0.013547846 1.6836364
0.075706303 0.015875556 1.6850001
0.083949603 0.0191464 1.6799999
0.094708055 0.017757758 1.6880001
0.10481777 0.01475956 1.684
0.11515191 0.014759561 1.684
0.12548606 0.011806946 1.6840001
0.13494121 0.01280167 1.6853334
0.14535835 0.016240876 1.6845714
0.15501221 0.017712174 1.684
0.16239373 0.016235866 1.6840001
0.29897839 0.0117824 1.6800001
0.30192399 0.0103096 1.6800001
0.14727999 0.022092 1.6800001
0.1516984 0.022092 1.6800001
-0.0221972 0.36847353 1.6880001
-0.023972977 0.37439278 1.6880001
-0.016869871 0.37557662 1.6880001
-0.024170285 0.38425818 1.688
-0.014798133 0.38475144 1.6879998
-0.0020703361 0.38527045 1.6864001
0.0034458844 0.38462988 1.6853333
-0.0397656 0.39912879 1.6800001
-0.024388866 0.39574662 1.6860001
-0.014751378 0.39385712 1.6826668
-0.0046976581 0.39498836 1.6829091
0.0044184001 0.39176476 1.6800002
-0.034785133 0.40162653 1.6834288
-0.028116453 0.40102941 1.6880001
-0.0058912002 0.4020744 1.6800001
-0.0058912002 0.4109112 1.6800001
0.011291467 0.45607707 1.6799999
-0.034035705 0.46910083 1.6880001
0.0139916 0.46466842 1.6800001
-0.031076079 0.47502008 1.6880001
0.017968159 0.47512525 1.6800001
-0.031076079 0.48241913 1.6880001
-0.028072035 0.48609412 1.6853334
0.017182665 0.48553303 1.6800002
0.0058912002 0.4904424 1.6800001
0.014313711 0.49439842 1.6805717
0.20865135 -0.46339428 1.6960001
0.21516506 -0.4645271 1.6960001
0.22525424 -0.46314651 1.6960001
0.23045813 -0.46240309 1.6960001
0.20567769 -0.45513418 1.6960001
0.21484646 -0.4564558 1.6960001
0.2237674 -0.45645577 1.6960001
0.23392738 -0.45397773 1.6960001
0.2453264 -0.45125189 1.6960001
0.25722101 -0.45050848 1.6960001
0.26019466 -0.45050848 1.6960001
0.19519909 -0.44371155 1.6960001
0.20310053 -0.44456115 1.6960001
0.21558985 -0.44337171 1.6960001
0.22153717 -0.44456115 1.6960001
0.23045813 -0.44753483 1.6960001
0.2453264 -0.44753483 1.6960001
0.25424737 -0.44753483 1.6960001
0.26614198 -0.44753483 1.6960001
0.27506292 -0.44356999 1.6960001
0.18783577 -0.43464899 1.6960001
0.19477428 -0.43564022 1.6960001
0.20319964 -0.43564019 1.6960001
0.21608548 -0.43663144 1.6960001
0.22351961 -0.43762267 1.6960001
0.23045813 -0.43861386 1.6960001
0.28695753 -0.43861386 1.6960001
0.2958785 -0.43415338 1.6960001
0.37616715 -0.43266657 1.6960001
0.18634893 -0.42671928 1.6960001
0.19536902 -0.42552978 1.6960001
0.20220843 -0.42820606 1.6960001
0.30579069 -0.42870167 1.6960001
0.31669408 -0.4237456 1.6960001
0.37505203 -0.42300224 1.6960001
0.19774795 -0.41482463 1.6960001
0.20072159 -0.41482463 1.6960001
0.33453599 -0.41779828 1.6960001
0.36377692 -0.4148246 1.6960001
0.17395872 -0.40293002 1.6960001
0.19774795 -0.4059037 1.6960001
0.34345695 -0.40887734 1.6960001
0.35832521 -0.40590367 1.6960001
0.36129889 -0.40887734 1.6960001
0.19626111 -0.39103541 1.6960001
0.19514599 -0.38471639 1.6960001
0.18684456 -0.37451515 1.6960001
0.18670295 -0.36469737 1.6960001
0.19328746 -0.36129889 1.6960001
0.18882698 -0.35832521 1.6960001
0.19477428 -0.3553516 1.6960001
0.20220843 -0.35237792 1.6960001
0.19774795 -0.34940428 1.6960001
0.20399261 -0.34583586 1.6960001
0.2074123 -0.33379257 1.6960001
0.2084531 -0.32561505 1.6960001
-0.21410304 -0.31966773 1.6960001
-0.20567769 -0.31768528 1.6960001
-0.19403088 -0.31520724 1.6960001
-0.18585335 -0.31421605 1.6960001
-0.17608275 -0.3120212 1.6960001
-0.16503775 -0.31074676 1.6960001
-0.1561168 -0.31074676 1.6960001
0.20964256 -0.31966773 1.6960001
0.21499515 -0.3131257 1.6960001
0.22153717 -0.31074676 1.6960001
-0.17544556 -0.30777311 1.6960001
-0.16801141 -0.30777311 1.6960001
-0.15413438 -0.30777311 1.6960001
-0.14521341 -0.30678189 1.6960001
0.21558987 -0.30479947 1.6960001
0.22228058 -0.30405605 1.6960001
-0.18436649 -0.29290485 1.6960001
-0.17990603 -0.29290485 1.6960001
-0.14124854 -0.29885215 1.6960001
0.22500642 -0.2958785 1.6960001
-0.18585332 -0.28893998 1.6960001
-0.17693238 -0.28993121 1.6960001
0.22451083 -0.28472731 1.6960001
0.23045813 -0.28101024 1.6960001
0.22649325 -0.27704537 1.6960001
0.23120154 -0.2743195 1.6960001
0.23607503 -0.26448998 1.6960001
0.23818965 -0.2548421 1.6960001
0.24235274 -0.25127369 1.6960001
0.23937909 -0.24681322 1.6960001
0.24447678 -0.24490158 1.6960001
0.24681322 -0.23937909 1.6960001
0.25350395 -0.23640543 1.6960001
0.26019466 -0.23045813 1.6960001
0.26614195 -0.22451082 1.6960001
0.27506292 -0.21707669 1.6960001
0.28547072 -0.21261621 1.6960001
0.28993121 -0.20964256 1.6960001
0.2958785 -0.20766012 1.6960001
0.30479947 -0.20567769 1.6960001
0.31520724 -0.20072159 1.6960001
0.31818089 -0.19477428 1.6960001
0.31595066 -0.18510991 1.6960001
0.30777311 -0.17098507 1.6960001
0.31244597 -0.17693236 1.6960001
0.29885215 -0.16801141 1.6960001
0.30628628 -0.16503775 1.6960001
0.31074676 -0.16652459 1.6960001
0.29885215 -0.15314315 1.6960001
0.30658364 -0.15671153 1.6960001
0.31149018 -0.15239973 1.6960001
0.34940425 -0.15314315 1.6960001
0.29885215 -0.1442222 1.6960001
0.31471166 -0.14719585 1.6960001
0.29885215 -0.13827488 1.6960001
-0.2832405 -0.082518876 1.6960001
-0.27506292 -0.083262287 1.6960001
-0.26486757 -0.083049886 1.6960001
-0.25499076 -0.084005699 1.6960001
-0.2460698 -0.083262287 1.6960001
-0.23640545 -0.081775464 1.6960001
-0.2948873 -0.07483694 1.6960001
-0.28547069 -0.07731498 1.6960001
-0.27704537 -0.077810593 1.6960001
-0.22376741 -0.078058399 1.6960001
-0.21618459 -0.074043974 1.6960001
-0.20518208 -0.074341327 1.6960001
-0.19576551 -0.073845722 1.6960001
-0.30281705 -0.068889633 1.6960001
-0.29885215 -0.069880851 1.6960001
-0.21261621 -0.069880851 1.6960001
-0.20369525 -0.069880851 1.6960001
-0.1955177 -0.06839402 1.6960001
-0.18585332 -0.064429156 1.6960001
-0.18436649 -0.057986241 1.6960001
-0.17990603 -0.053525761 1.6960001
0.33750966 -0.053525761 1.6960001
-0.32561505 -0.040144321 1.6960001
-0.17480834 -0.044392399 1.6960001
-0.16503775 -0.042268358 1.6960001
-0.15016949 -0.040144321 1.6960001
0.33750966 -0.046091627 1.6960001
0.37404314 -0.042268358 1.6960001
0.38211444 -0.046091627 1.6960001
-0.32561505 -0.035683841 1.6960001
-0.15462999 -0.034197014 1.6960001
-0.14459389 -0.033825308 1.6960001
-0.13530123 -0.032710187 1.6960001
-0.12712368 -0.031966772 1.6960001
-0.095652513 -0.031223362 1.6960001
0.33453599 -0.034197014 1.6960001
0.3627857 -0.034197014 1.6960001
0.37468031 -0.037170667 1.6960001
-0.15399277 -0.026975285 1.6960001
-0.144647 -0.026125669 1.6960001
-0.13530123 -0.02676288 1.6960001
-0.12489344 -0.026762882 1.6960001
-0.11411395 -0.025647761 1.6960001
-0.10556469 -0.025276056 1.6960001
-0.095156893 -0.02676288 1.6960001
-0.084749117 -0.025276056 1.6960001
-0.077314988 -0.0223024 1.6960001
-0.069880851 -0.0223024 1.6960001
0.33156234 -0.025276054 1.6960001
-0.081775464 -0.019328747 1.6960001
-0.075828157 -0.019328747 1.6960001
-0.065123007 -0.018734017 1.6960001
-0.054587781 -0.017204707 1.6960001
-0.044604797 -0.014124854 1.6960001
-0.033825304 -0.013009734 1.6960001
-0.026465515 -0.012191979 1.6960001
-0.019328747 -0.010407787 1.6960001
-0.032710187 -0.0074341334 1.6960001
-0.024532638 -0.0066907201 1.6960001
-0.016355094 -0.0074341334 1.6960001
-0.0052038934 -0.0037170667 1.6960001
0.0044604801 -0.0037170667 1.6960001
0.013976172 -0.0020815574 1.6960001
0.025276056 -0.0014868267 1.6960001
0.27803659 -0.0044604801 1.6960001
0.28547072 -0.00223024 1.6960001
0.026267273 0.0034692623 1.6960001
0.034197014 0.0044604801 1.6960001
0.044604801 0.0059473068 1.6960001
0.055012587 0.0059473068 1.6960001
0.064429156 0.0064429156 1.6960001
0.075084746 0.0066907201 1.6960001
0.10556469 0.0074341334 1.6960001
0.11299883 0.0074341334 1.6960001
0.12553065 0.0061597107 1.6960001
0.13572605 0.0053100954 1.6960001
0.14243799 0.0050552106 1.6960001
0.28993121 0.0014868267 1.6960001
0.2958785 0.0034692623 1.6960001
0.30777311 0.0044604801 1.6960001
0.31074676 0.0014868267 1.6960001
0.037170667 0.010407787 1.6960001
0.069880851 0.010407787 1.6960001
0.075828157 0.010407787 1.6960001
0.084749117 0.01338144 1.6960001
0.094751403 0.013111111 1.6960002
0.10556469 0.010407787 1.6960001
0.11448565 0.010407787 1.6960001
0.12043296 0.010407787 1.6960001
0.13827488 0.010407787 1.6960001
0.1442222 0.011399005 1.6960001
0.15462998 0.01338144 1.6960001
0.16355094 0.011894614 1.6960001
-0.0223024 0.36575937 1.6960001
-0.015760362 0.36665145 1.6960001
-0.013922105 0.37346384 1.6960002
-0.0034692623 0.3771584 1.6960001
0.00223024 0.37542373 1.6960001
-0.032710187 0.38657492 1.6960001
-0.028249707 0.38657492 1.6960001
-0.0059473068 0.38508809 1.6960001
-0.033926681 0.39590141 1.6960002
-0.028249705 0.39400902 1.6960001
-0.0074341334 0.39103541 1.6960001
0.014868267 0.46537673 1.6960001
-0.035188232 0.47429773 1.6960001
0.019328747 0.4742977 1.6960001
0.19730261 -0.48279348 1.705
0.20776561 -0.48279348 1.705
0.21224976 -0.48279348 1.705
0.1883343 -0.47382519 1.705
0.19640578 -0.474722 1.7050002
0.20520322 -0.47297102 1.705
0.21466431 -0.47520491 1.705
0.22570223 -0.47158313 1.705
0.14498751 -0.46186745 1.705
0.19666202 -0.4644298 1.705
0.20392205 -0.46528393 1.705
0.22420749 -0.4678463 1.705
0.23467052 -0.46485686 1.705
0.38264745 -0.46485686 1.705
0.14424014 -0.45514125 1.705
0.17637657 -0.45289916 1.705
0.18803534 -0.45469284 1.7050002
0.19580787 -0.4558886 1.705
0.20178674 -0.45738328 1.705
0.23765995 -0.45887801 1.705
0.24483459 -0.45768222 1.7050002
0.25499862 -0.45469278 1.7050002
0.26456484 -0.45389566 1.705
0.27054372 -0.45289916 1.705
0.14399104 -0.44542554 1.705
0.17616303 -0.44478494 1.705
0.18564382 -0.44512662 1.705
0.19431317 -0.44990972 1.705
0.27652258 -0.44891322 1.705
0.28399616 -0.44393083 1.705
0.2959539 -0.44094142 1.705
0.30043805 -0.44094142 1.705
0.13900866 -0.43496254 1.705
0.14349279 -0.43496254 1.705
0.17488185 -0.43496254 1.705
0.18299603 -0.43496254 1.705
0.29744861 -0.43795198 1.705
0.30417484 -0.43496254 1.705
0.31389052 -0.4319731 1.705
0.37517387 -0.43496254 1.705
0.13826129 -0.42225745 1.705
0.14349279 -0.42449951 1.705
0.1677072 -0.42240691 1.7050002
0.17488186 -0.42449954 1.705
0.18484662 -0.42350304 1.705
0.1935658 -0.42300481 1.705
0.31687993 -0.42898369 1.705
0.32285881 -0.42599425 1.705
0.33930069 -0.42001539 1.705
0.3422901 -0.42001539 1.705
0.35723728 -0.42599425 1.705
0.36411297 -0.42360267 1.7050002
0.37218446 -0.42748898 1.705
0.16740827 -0.41403651 1.705
0.17488186 -0.41403648 1.705
0.18534487 -0.41403651 1.705
0.19431317 -0.41403651 1.705
0.33930069 -0.41553122 1.705
0.34428307 -0.41403651 1.705
0.35424784 -0.41104707 1.705
0.36022672 -0.41403651 1.705
0.16628723 -0.40544188 1.705
0.17488185 -0.40506825 1.705
0.18534487 -0.40506825 1.705
0.19495377 -0.40464115 1.705
0.35574257 -0.40805766 1.705
0.15993468 -0.39311048 1.705
0.16740827 -0.39460522 1.705
0.17488183 -0.39460516 1.705
0.18534487 -0.39460522 1.705
0.19506052 -0.3960999 1.705
0.16591355 -0.3856369 1.705
0.17488185 -0.38414219 1.705
0.18474698 -0.38474005 1.7050002
0.17525552 -0.37554753 1.705
0.18205649 -0.37517387 1.7050002
0.17637655 -0.36471087 1.705
0.18272913 -0.36358982 1.705
0.17787129 -0.35723728 1.705
0.18575253 -0.35451964 1.705
0.19381493 -0.3522549 1.705
0.18721326 -0.34565324 1.705
0.19580787 -0.34527957 1.705
0.20328146 -0.3422901 1.705
0.18982902 -0.33930069 1.705
0.19730259 -0.33631122 1.705
0.20328146 -0.33481652 1.705
-0.21075505 -0.32285881 1.705
-0.20328146 -0.32136407 1.705
-0.19580789 -0.32136407 1.705
-0.1883343 -0.32136407 1.705
0.1987973 -0.32435352 1.705
0.20440249 -0.32435352 1.705
-0.19580789 -0.31837463 1.705
-0.18235543 -0.31837463 1.705
-0.17413449 -0.31762728 1.705
-0.16591354 -0.31588346 1.705
-0.15619789 -0.31314316 1.705
-0.14648223 -0.31239578 1.705
0.19879732 -0.31687993 1.705
0.2056303 -0.31581229 1.705
0.2115024 -0.31463787 1.705
-0.14199808 -0.30342749 1.705
0.19819944 -0.30522114 1.7050002
0.20504795 -0.30532983 1.705
0.2133708 -0.3030538 1.705
-0.18086071 -0.29146975 1.705
0.20656984 -0.29505706 1.7050002
0.21523921 -0.29445916 1.705
0.2227128 -0.29445919 1.705
-0.18534487 -0.28848031 1.705
0.20676915 -0.28748384 1.705
0.21523921 -0.28549087 1.705
0.22271279 -0.28250146 1.705
0.2177304 -0.27751908 1.705
0.22503789 -0.27386531 1.705
0.23168108 -0.27054372 1.705
0.2266987 -0.26556134 1.705
0.23242843 -0.26381749 1.705
0.22869165 -0.25559655 1.705
0.23381639 -0.25516948 1.705
0.23566699 -0.24762474 1.705
0.24164587 -0.24164586 1.705
0.24662824 -0.23765995 1.705
0.25559655 -0.2331758 1.705
0.26456484 -0.22719693 1.705
0.27652258 -0.21673392 1.705
0.28549087 -0.21175152 1.705
0.28848031 -0.20776561 1.705
0.29445919 -0.20527442 1.705
0.30417484 -0.20328146 1.705
0.31239578 -0.20178674 1.705
0.2959539 -0.19281845 1.705
0.30268013 -0.19655526 1.705
0.31488699 -0.19580787 1.705
0.29616743 -0.18555841 1.705
0.30223173 -0.18444803 1.7050002
0.31359154 -0.18743746 1.7050002
0.29483286 -0.17488183 1.705
0.30475608 -0.17488186 1.705
0.29445919 -0.16591354 1.705
0.3022317 -0.16531567 1.7050002
0.28848031 -0.15843996 1.705
0.29445919 -0.15545052 1.705
0.30454853 -0.15470318 1.705
0.29483286 -0.14498752 1.705
0.30492219 -0.14548576 1.705
0.28399616 -0.13153507 1.705
0.29744861 -0.13751394 1.705
0.30043805 -0.13601921 1.705
-0.28399616 -0.08669357 1.705
-0.27502784 -0.088188283 1.705
-0.26307011 -0.08669357 1.705
-0.25559655 -0.088188283 1.705
-0.24413705 -0.087191813 1.705
-0.23467052 -0.085198849 1.7050002
-0.22630009 -0.083405182 1.7050002
-0.21972334 -0.082209416 1.705
-0.2062709 -0.082209416 1.705
-0.30143452 -0.074237593 1.705
-0.21494026 -0.078622088 1.7050002
-0.20477618 -0.079219982 1.705
-0.19580789 -0.075034775 1.7050002
-0.18758695 -0.072493754 1.705
-0.18310279 -0.065020174 1.705
-0.17787129 -0.061283384 1.705
0.33481652 -0.0627781 1.705
-0.18086071 -0.05829395 1.705
-0.17530891 -0.054450393 1.705
-0.16890298 -0.052315082 1.705
0.32734296 -0.05829395 1.705
0.33417591 -0.057012763 1.705
-0.33033237 -0.040357351 1.705
-0.17338714 -0.047830932 1.705
-0.1666609 -0.047830932 1.705
-0.15574947 -0.041553121 1.7050002
-0.14438963 -0.041553121 1.7050002
-0.13388391 -0.041638535 1.705
0.33631125 -0.043346781 1.705
-0.33033237 -0.035873201 1.705
-0.14199808 -0.037367918 1.705
-0.13452449 -0.037367918 1.705
-0.12363442 -0.035232611 1.705
-0.11509318 -0.033524364 1.705
-0.10463016 -0.033631127 1.705
-0.094765037 -0.034378484 1.7050002
-0.085198849 -0.03138905 1.705
-0.079219982 -0.03138905 1.705
0.33481652 -0.035873201 1.705
0.36919501 -0.034378484 1.705
-0.082209416 -0.028399616 1.705
-0.075376414 -0.025837243 1.705
-0.064272813 -0.022420749 1.705
-0.056051876 -0.023168107 1.705
-0.045738328 -0.023018636 1.7050002
-0.037367918 -0.022420749 1.705
0.33332181 -0.028399616 1.705
-0.043346781 -0.019431317 1.705
-0.035125844 -0.018683959 1.705
-0.025410183 -0.015694525 1.705
-0.016441884 -0.011459495 1.705
0.27951202 -0.010463017 1.705
0.33033237 -0.019431317 1.705
-0.010463017 -0.0074735833 1.705
0.0044841501 -0.0074735829 1.705
0.015587759 -0.0061923978 1.705
0.025410181 -0.0059788669 1.705
0.03395142 -0.0036300265 1.705
0.043845024 -0.0024911945 1.705
0.055304516 -0.0014947165 1.705
0.064272813 -0.0014947165 1.705
0.074735828 -0.0029894335 1.705
0.085198849 -0.0014947166 1.705
0.091177717 -0.0014947166 1.705
0.10687225 -0.0022420748 1.705
0.11509319 -0.0029894335 1.705
0.1236878 -0.0041104709 1.705
0.13452451 -0.0024911945 1.705
0.14199808 -0.0014947166 1.705
0.16890298 -0.0014947166 1.705
0.17189242 -0.0014947166 1.705
0.27951202 -0.0074735833 1.705
0.28623822 -0.0059788665 1.705
0.29445916 -0.0029894332 1.705
0.044841498 0.0014947166 1.705
0.055304516 0.0014947165 1.705
0.065020174 0.002242075 1.705
0.074949369 0.0027759024 1.705
0.085198849 0.0044841501 1.705
0.094167151 0.0044841501 1.705
0.10413192 0.0034876722 1.705
0.11552024 0.0036300265 1.705
0.12331413 0.0022420748 1.705
0.13302977 0.0014947165 1.705
0.14698046 0.0044841501 1.705
0.15545052 0.0059788669 1.705
0.16628723 0.0048578293 1.705
0.17189242 0.0014947166 1.705
0.29744861 0.0014947166 1.705
0.30342749 0.0029894332 1.705
0.14797695 0.010463017 1.705
0.15545052 0.010463017 1.705
0.16292411 0.010463017 1.705
0.010463017 0.34826899 1.705
0.010463017 0.35125843 1.705
-0.022420749 0.36172146 1.705
-0.014947166 0.3632161 1.7050002
-0.0044841501 0.36919501 1.705
0.0029894332 0.36919501 1.705
-0.005480628 0.37417743 1.705
0.0029894332 0.37218446 1.705
0.01345245 0.46485689 1.705
-0.040357351 0.47382519 1.705
-0.037367918 0.47830933 1.705
0.15768164 -0.49106571 1.7130001
0.16368859 -0.49106571 1.7129999
0.17630309 -0.49226707 1.7130001
0.18508822 -0.49369374 1.7130002
0.19481535 -0.49379608 1.7130001
0.20648788 -0.49181658 1.7130001
0.21174394 -0.49106571 1.7130001
0.28582928 -0.49707261 1.7129999
0.29669896 -0.49449825 1.7130002
0.30334947 -0.49482006 1.7130001
0.3108581 -0.49707264 1.7130001
0.15768164 -0.48505878 1.7130001
0.16519029 -0.48505881 1.7129999
0.17570241 -0.48505872 1.7130002
0.18471278 -0.48505878 1.7130002
0.19372317 -0.48580962 1.7130002
0.20536157 -0.48505881 1.7130002
0.2147474 -0.48656052 1.7130001
0.22075431 -0.48205534 1.7130001
0.29884428 -0.48505878 1.7129999
0.30184773 -0.48505878 1.7129999
0.14566781 -0.47154322 1.7130001
0.15617992 -0.47504726 1.7130002
0.16519029 -0.47454664 1.7129998
0.17570244 -0.47454667 1.7129999
0.18443975 -0.47441018 1.7130001
0.19192109 -0.47424632 1.7130001
0.20423529 -0.47905186 1.7130001
0.2252595 -0.47755015 1.7130001
0.23426989 -0.47154322 1.7130001
0.29884428 -0.47905186 1.7130001
0.30184773 -0.47604838 1.7129999
0.37993768 -0.47004148 1.7130001
0.38294116 -0.47454667 1.7130001
0.13966089 -0.46103111 1.7130001
0.14446643 -0.46403456 1.7130001
0.15553632 -0.46360549 1.7130002
0.16519029 -0.46403459 1.7129999
0.17570241 -0.46403456 1.7130002
0.18471278 -0.46403462 1.7130002
0.19172086 -0.46603689 1.7129999
0.23877507 -0.46703804 1.7130001
0.24418131 -0.46523595 1.7130001
0.25439304 -0.46163177 1.7130001
0.32737714 -0.46103111 1.7130001
0.33338404 -0.46103111 1.7130001
0.37993768 -0.4655363 1.7130001
0.38444287 -0.46703804 1.7130001
0.1384595 -0.45442349 1.7130001
0.14626849 -0.45502418 1.7130001
0.15553632 -0.45459509 1.7130002
0.16602458 -0.45535791 1.7130002
0.17520182 -0.45552471 1.7130002
0.18351141 -0.45622557 1.7130001
0.26730794 -0.45802766 1.7130001
0.2748166 -0.45502418 1.7130001
0.28382698 -0.45202073 1.7129999
0.31986848 -0.45652592 1.7130001
0.32625085 -0.45539966 1.7130002
0.33338407 -0.45577508 1.7130001
0.13815916 -0.44451207 1.7130002
0.14746988 -0.44421172 1.7130001
0.15467818 -0.4445121 1.7129999
0.16529039 -0.44441193 1.7129998
0.17269893 -0.44601381 1.7129999
0.28683043 -0.44801614 1.7129999
0.29584083 -0.44601381 1.7129999
0.30545187 -0.44240966 1.7130001
0.3108581 -0.44150862 1.7130001
0.32687655 -0.44801608 1.7129999
0.33338404 -0.44901726 1.7130001
0.34689963 -0.44000688 1.7130001
0.37843597 -0.44000688 1.7130001
0.13590656 -0.43324909 1.7130002
0.14867127 -0.43399993 1.7129999
0.1546782 -0.43399996 1.7130002
0.16519029 -0.43399999 1.7129999
0.31626433 -0.43640271 1.7130001
0.32487425 -0.43299878 1.7130002
0.35591003 -0.43099651 1.7129999
0.36567125 -0.43174738 1.7130001
0.3721287 -0.43460068 1.7130001
0.13365398 -0.42498964 1.7130002
0.14867127 -0.42498958 1.7129999
0.15467818 -0.42498958 1.7130002
0.16283044 -0.42541865 1.7130002
0.32887888 -0.42799306 1.7130001
0.33488578 -0.42574045 1.7130001
0.34599859 -0.42559034 1.7130001
0.35553455 -0.42461416 1.7130002
0.13605675 -0.41567889 1.7130001
0.14416607 -0.41597924 1.7130002
0.15617992 -0.41597924 1.7130002
0.16218685 -0.41597918 1.7130002
0.34840137 -0.41748092 1.7130001
0.35591003 -0.41748092 1.7130002
0.13590658 -0.40671858 1.7129999
0.14466664 -0.4049665 1.7130002
0.15505363 -0.40358996 1.7130002
0.16168626 -0.40446594 1.7130002
0.13966089 -0.39795846 1.7130001
0.14529237 -0.39457956 1.7130002
0.15467818 -0.39495504 1.7130002
0.16248718 -0.39495498 1.7130001
0.14446643 -0.3865453 1.7130001
0.15505362 -0.38632005 1.7130002
0.16368856 -0.3844429 1.7130002
0.14566781 -0.37993768 1.7130001
0.15768164 -0.37693426 1.7129999
0.16549063 -0.37573287 1.7129998
0.17269894 -0.37242904 1.7130001
0.16669202 -0.36492038 1.7130002
0.17269893 -0.36492038 1.7129999
0.15768164 -0.35591 1.7130001
0.16819376 -0.35591003 1.7130002
0.17532699 -0.35553461 1.7130002
0.18170933 -0.35290655 1.7130001
-0.20273355 -0.3408927 1.7130001
-0.1952249 -0.34239444 1.7130002
-0.18771625 -0.34239444 1.7130001
0.16819376 -0.34840134 1.7130001
0.17597546 -0.34580746 1.7130001
0.18342559 -0.34389615 1.7130002
-0.21324566 -0.33188233 1.7130001
-0.20453563 -0.33368441 1.7130001
-0.1952249 -0.33488581 1.7129999
-0.18671508 -0.33388463 1.7129999
0.18557091 -0.33531484 1.7130002
0.19372319 -0.33488572 1.7130002
-0.21174394 -0.32887888 1.7130001
-0.20573699 -0.32737714 1.7130002
-0.19522491 -0.32737714 1.7130002
-0.18433735 -0.32625082 1.7130002
-0.17570241 -0.32437366 1.7130002
-0.16669203 -0.32437366 1.7130002
0.18696538 -0.32662627 1.7130001
0.19372319 -0.3258754 1.7130002
-0.16368857 -0.31986848 1.7130001
-0.15542905 -0.3176159 1.7130001
-0.14491694 -0.31461245 1.7130001
0.18711555 -0.31446227 1.7130001
0.19418524 -0.31524774 1.7129999
0.20273355 -0.31536329 1.7130001
-0.14266434 -0.30785465 1.7130001
-0.13815916 -0.30485117 1.7130001
0.18696538 -0.30560204 1.7130001
0.19334774 -0.30447572 1.7130002
0.20273355 -0.30184773 1.7130001
0.1952249 -0.29584083 1.7129999
0.20348442 -0.29508993 1.7130001
0.1977278 -0.28783157 1.7130002
0.20506956 -0.28416067 1.7130002
0.21174394 -0.2808235 1.7130001
0.20633769 -0.27661866 1.7130001
0.21437198 -0.27444118 1.7130002
0.22075431 -0.27181312 1.7130001
0.21549825 -0.26805881 1.7130001
0.22275661 -0.26480505 1.7130002
0.22495916 -0.25589481 1.7130001
0.22826296 -0.24778545 1.7130001
0.23517092 -0.24418128 1.7130001
0.23877507 -0.23877507 1.7130001
0.24478197 -0.23677278 1.7129999
0.25229064 -0.23426989 1.7130001
0.2597993 -0.22976469 1.7130001
0.2658062 -0.22576006 1.7129999
0.27181312 -0.22075431 1.7130001
0.2748166 -0.21775085 1.7130001
0.28232524 -0.21324566 1.7130001
0.28803182 -0.2051363 1.7130001
0.29433906 -0.20273355 1.7130001
0.30585232 -0.2037347 1.7129999
0.28883275 -0.19422375 1.7130002
0.29508996 -0.19672661 1.7130002
0.30635291 -0.19522491 1.7130002
0.31160897 -0.19372316 1.7130001
0.28908303 -0.18546365 1.7130001
0.29358822 -0.18471278 1.7130001
0.30635291 -0.18471278 1.7130002
0.3108581 -0.18621451 1.7130001
0.28833216 -0.17570241 1.7130002
0.29283735 -0.17570241 1.7130001
0.30485117 -0.17720413 1.7130001
0.2854442 -0.16484372 1.7129999
0.28532869 -0.15437785 1.7130001
0.28622973 -0.14596814 1.7130001
0.29283735 -0.14566781 1.7130001
0.30635291 -0.14566781 1.7130001
0.3108581 -0.14566781 1.7130001
0.2848281 -0.13640715 1.7129999
0.29433906 -0.13815916 1.7130001
0.2808235 -0.12764704 1.7130001
-0.27421588 -0.09280692 1.7130001
-0.2658062 -0.091605522 1.7129999
-0.25529408 -0.093107268 1.7130002
-0.24478197 -0.094608992 1.7130002
-0.23777391 -0.092606686 1.7129999
-0.26730794 -0.088602066 1.7130001
-0.23426989 -0.088602066 1.7130001
-0.22425835 -0.087600917 1.7130002
-0.2147474 -0.085598603 1.7130002
-0.20573699 -0.086099185 1.7130002
-0.19572549 -0.083596297 1.7130002
-0.19372316 -0.079591691 1.7129999
-0.18514185 -0.074871965 1.7130002
-0.17570241 -0.072083049 1.7130002
-0.16969548 -0.070581309 1.7130001
-0.18170933 -0.067577846 1.7130001
-0.17532699 -0.064949825 1.7130002
-0.16669202 -0.064574391 1.7130002
0.32887888 -0.061570931 1.7130001
-0.17420068 -0.058567468 1.7130001
-0.1663166 -0.055939443 1.7130002
0.32887888 -0.054062277 1.7130001
0.33488581 -0.052560549 1.7129999
-0.16168626 -0.04655363 1.7129999
-0.15467818 -0.047054205 1.7130002
-0.14609687 -0.047411762 1.7130002
-0.13665743 -0.046982698 1.7130002
-0.12501901 -0.04317474 1.7130002
-0.1162339 -0.041748095 1.7130001
-0.10161706 -0.041547865 1.7129999
-0.095359862 -0.041297577 1.7130001
-0.088602066 -0.040546712 1.7130001
0.31686503 -0.043550171 1.7130001
0.32887888 -0.048055358 1.7130001
0.3338846 -0.045552477 1.7130002
0.38744634 -0.04955709 1.7130001
-0.1156332 -0.037543248 1.7130001
-0.10662282 -0.037543248 1.7129999
-0.093107261 -0.037543248 1.7130001
-0.08559861 -0.036041521 1.7130002
-0.075987533 -0.033338405 1.7130001
0.33308372 -0.033939097 1.7130001
0.3769342 -0.034539789 1.7129999
-0.072083041 -0.02853287 1.7130001
-0.064574391 -0.027031144 1.7130002
-0.055564005 -0.026530564 1.7129999
-0.045051903 -0.026280276 1.7130001
-0.034539789 -0.023527103 1.7129999
-0.02853287 -0.022525949 1.7130001
0.19522491 -0.024027679 1.7130001
0.33188233 -0.025529409 1.7129999
-0.023527103 -0.018521337 1.7129999
-0.014516723 -0.014016148 1.7130002
0.0060069198 -0.01051211 1.7130001
0.015017301 -0.01051211 1.7130001
0.025529409 -0.01051211 1.7129999
0.10962629 -0.01051211 1.7130001
0.11563321 -0.01051211 1.7129999
0.12314186 -0.01051211 1.7130001
0.16969548 -0.01051211 1.7130001
0.17420068 -0.01051211 1.7130001
0.28749788 -0.013849288 1.7130002
0.29584083 -0.01201384 1.7130002
-0.0045051896 -0.00750865 1.7129999
0.036041521 -0.00750865 1.7130001
0.045051899 -0.0060069198 1.7130001
0.056314871 -0.0052560549 1.7130001
0.064574383 -0.0045051901 1.7129999
0.075086504 -0.00750865 1.7130001
0.08559861 -0.0050057671 1.7130002
0.09520968 -0.0033038058 1.7130001
0.1044775 -0.0053633219 1.7130002
0.11563321 -0.00750865 1.7129999
0.12764704 -0.00750865 1.7130001
0.13515571 -0.0060069202 1.7130001
0.14506713 -0.0039044977 1.7130001
0.1546782 -0.0030034601 1.7130002
0.16478072 -0.004778232 1.7130001
0.17520183 -0.0055063437 1.7130002
0.28683043 -0.00750865 1.7130001
0.29659167 -0.0067577851 1.7130001
0.30184773 -0.0045051896 1.7129999
0.31536329 -0.0015017299 1.7130001
0.14867127 0.0015017299 1.7130001
0.15467818 0.0015017301 1.7129999
0.16218683 0.0015017299 1.7130001
0.30635291 0.0030034599 1.7130001
0.3108581 0.0015017299 1.7130001
0.01051211 0.34689963 1.7130001
-0.0150173 0.35891348 1.7130001
-0.025529411 0.36191693 1.7130001
-0.01051211 0.36191693 1.7130001
-0.005105882 0.36672246 1.7130001
0.0045051901 0.36642212 1.7130001
-0.040546712 0.47404611 1.7129999
0.14567834 -0.49289092 1.7220001
0.15462823 -0.49407703 1.7220001
0.16454858 -0.49817458 1.7220001
0.17360629 -0.49795893 1.7220001
0.18266402 -0.49968421 1.7220001
0.2037987 -0.49666497 1.7220001
0.21587566 -0.49213612 1.7220001
0.26720273 -0.49817461 1.7220001
0.27543703 -0.49639046 1.7220001
0.2853182 -0.49398121 1.7220001
0.29351327 -0.49321443 1.7220001
0.30774683 -0.49450833 1.7220001
0.31578505 -0.49474365 1.7220001
0.3245683 -0.49515536 1.7220001
0.3349984 -0.49337122 1.7220001
0.34527165 -0.49278307 1.7220001
0.35174146 -0.49062648 1.7220001
0.14522545 -0.48519188 1.7220001
0.15448444 -0.48559442 1.7220001
0.22493339 -0.48458803 1.7220001
0.29739514 -0.48458803 1.7220001
0.30796248 -0.48458803 1.7220001
0.3155106 -0.48458803 1.7220001
0.32305866 -0.48383322 1.7220001
0.33551303 -0.48421061 1.7220001
0.34570298 -0.48458803 1.7220001
0.35174146 -0.48760727 1.7220001
0.38193387 -0.48156878 1.7220001
0.14567833 -0.47553027 1.7220001
0.15428315 -0.4755303 1.7220001
0.2339911 -0.47854954 1.7220001
0.24304882 -0.47251105 1.7220001
0.29739514 -0.47703993 1.7220001
0.30524516 -0.4752284 1.7220001
0.31464794 -0.47596163 1.7220001
0.37891462 -0.47251105 1.7220001
0.38193387 -0.47703993 1.7220001
0.1353626 -0.46445975 1.7220001
0.14492351 -0.4679822 1.7220001
0.15247162 -0.46546617 1.7220001
0.2490873 -0.46949181 1.7220001
0.25512576 -0.46747899 1.7220001
0.26418349 -0.46445975 1.7220001
0.27173162 -0.46194372 1.7220001
0.29739514 -0.46194372 1.7220001
0.30429626 -0.46453163 1.7220001
0.31551057 -0.46496293 1.7220001
0.32356188 -0.46596935 1.7220001
0.33543757 -0.46466106 1.7220001
0.37891462 -0.46647254 1.7220001
0.13314849 -0.45439562 1.7220001
0.15247162 -0.45741487 1.7220001
0.16354217 -0.45640847 1.7220001
0.27927971 -0.45741487 1.7220001
0.28531817 -0.45741487 1.7220001
0.2943759 -0.4533892 1.7220001
0.30494323 -0.45439562 1.7220001
0.31551057 -0.45439562 1.7220001
0.32305866 -0.45288599 1.7220001
0.33845678 -0.45499945 1.7220001
0.34268373 -0.45590526 1.7220001
0.13284656 -0.44533789 1.7220001
0.16454858 -0.44835714 1.7220001
0.30796248 -0.44835714 1.7220001
0.3163732 -0.44576925 1.7220001
0.32419091 -0.44496047 1.7220001
0.33513567 -0.44533786 1.7220001
0.34469655 -0.44533789 1.7220001
0.35476074 -0.44231865 1.7220001
0.36532804 -0.44231865 1.7220001
0.37649924 -0.44473404 1.7220001
0.38193387 -0.4468475 1.7220001
0.12771386 -0.43386477 1.7220001
0.13209175 -0.43552536 1.7220001
0.32758754 -0.4392994 1.7220001
0.33589044 -0.43527377 1.7220001
0.34570298 -0.43477058 1.7220001
0.35432938 -0.43714282 1.7220001
0.36468104 -0.43800545 1.7220001
0.11925998 -0.42420322 1.7220001
0.12567587 -0.42458063 1.7220001
0.13133694 -0.42118397 1.7220001
0.14945237 -0.42118397 1.7220001
0.15247162 -0.42118397 1.7220001
0.11775036 -0.41212624 1.7220001
0.12567587 -0.41476804 1.7220001
0.13133694 -0.41816473 1.7220001
0.14945237 -0.41514549 1.7220001
0.15428315 -0.41393781 1.7220001
0.11825357 -0.40709421 1.7220001
0.12572978 -0.40695044 1.7220001
0.13392486 -0.40220591 1.7220001
0.14945237 -0.40508136 1.7220001
0.15247162 -0.40910703 1.7220001
0.13435619 -0.39401081 1.7220001
0.14265908 -0.39325601 1.7220001
0.13511099 -0.38646269 1.7220001
0.14384522 -0.38495311 1.7220001
0.15347803 -0.38294029 1.7220001
0.13556388 -0.37710306 1.7220001
0.14401774 -0.37619734 1.7220001
0.15462823 -0.37546411 1.7220001
0.16152933 -0.37287614 1.7220001
0.14457513 -0.36474741 1.7220001
0.1560947 -0.36472419 1.7220001
0.16213317 -0.36442226 1.7220001
0.14542674 -0.35627034 1.7220001
0.15624566 -0.35551554 1.7220001
0.16303895 -0.35476068 1.7220001
-0.18417364 -0.34419334 1.7220001
-0.17964478 -0.34419334 1.7220001
0.1585101 -0.34872222 1.7220001
0.16454856 -0.34630683 1.7220001
0.17159347 -0.34369016 1.7220001
-0.21285641 -0.33815485 1.7220001
-0.20832756 -0.33815485 1.7220001
-0.18467684 -0.33714843 1.7220001
-0.17533158 -0.33448863 1.7220001
-0.1660582 -0.33211643 1.7220001
0.17783323 -0.33785293 1.7220001
0.18266402 -0.33362603 1.7220001
-0.16152933 -0.32607794 1.7220001
-0.15549086 -0.32305866 1.7220001
-0.14643313 -0.32154906 1.7220001
0.18417364 -0.3245683 1.7220001
-0.14114946 -0.31626537 1.7220001
-0.1347875 -0.31464791 1.7220001
0.18387172 -0.31611443 1.7220001
-0.14039466 -0.30947208 1.7220001
-0.13586581 -0.30947208 1.7220001
0.17964478 -0.30645287 1.7220001
0.18518005 -0.30444002 1.7220001
0.18794769 -0.2951307 1.7220001
0.19172174 -0.29135665 1.7220001
0.19524419 -0.28531817 1.7220001
0.20077945 -0.28229895 1.7220001
0.19776022 -0.2777701 1.7220001
0.20530832 -0.27399606 1.7220001
0.2164795 -0.26478735 1.7220001
0.2188949 -0.2566354 1.7220001
0.22292055 -0.25311294 1.7220001
0.22644299 -0.24757768 1.7220001
0.23338726 -0.24244496 1.7220001
0.23701034 -0.23701034 1.7220001
0.24455842 -0.23550072 1.7220001
0.25512576 -0.23248148 1.7220001
0.26493829 -0.22493339 1.7220001
0.27022198 -0.22191414 1.7220001
0.27626047 -0.21688206 1.7220001
0.28229895 -0.21285641 1.7220001
0.28488687 -0.20552398 1.7220001
0.28632459 -0.19474097 1.7220001
0.28733101 -0.18367045 1.7220001
0.2777701 -0.17209668 1.7220001
0.28380856 -0.17511591 1.7220001
0.27807203 -0.16454859 1.7220001
0.27852491 -0.15624566 1.7220001
0.28229895 -0.15549086 1.7220001
0.27927971 -0.14492351 1.7220001
0.28229895 -0.14492352 1.7220001
0.27927971 -0.13435619 1.7220001
0.27927971 -0.1283177 1.7220001
-0.24606806 -0.11020226 1.7220001
-0.26116425 -0.10265416 1.7220001
-0.25512576 -0.10265416 1.7220001
-0.24455845 -0.10416379 1.7220001
-0.23442243 -0.10330115 1.7220001
-0.22795261 -0.10114454 1.7220001
-0.2712284 -0.097118884 1.7220001
-0.26478735 -0.096917607 1.7220001
-0.25512579 -0.098125301 1.7220001
-0.24002957 -0.098125301 1.7220001
-0.2336137 -0.095483467 1.7220001
-0.2253647 -0.094243422 1.7220001
-0.21587564 -0.093596436 1.7220001
-0.20552397 -0.093380772 1.7220001
-0.19474098 -0.092841633 1.7220001
-0.17964478 -0.092086822 1.7220001
-0.20228907 -0.089067578 1.7220001
-0.19474098 -0.087859884 1.7220001
-0.18568325 -0.084035516 1.7220001
-0.1759288 -0.083725855 1.7220001
-0.16636011 -0.082425259 1.7220001
-0.18266402 -0.076990619 1.7220001
-0.17421015 -0.076386772 1.7220001
-0.1660582 -0.073971383 1.7220001
-0.16152933 -0.055855941 1.7220001
-0.15592217 -0.054993298 1.7220001
-0.14492351 -0.054346323 1.7220001
-0.13435619 -0.054346319 1.7220001
-0.12731129 -0.053843115 1.7220001
0.32658115 -0.053843115 1.7220001
-0.16152933 -0.049817462 1.7220001
-0.15549086 -0.049817462 1.7220001
-0.13284656 -0.049817462 1.7220001
-0.12454365 -0.049062651 1.7220001
-0.11377046 -0.046798225 1.7220001
-0.1045951 -0.045504261 1.7220001
-0.095106065 -0.046295013 1.7220001
-0.084035516 -0.044533789 1.7220001
-0.073971376 -0.041967433 1.7220001
-0.06491366 -0.040759739 1.7220001
-0.058875181 -0.040759739 1.7220001
0.31702018 -0.040759739 1.7220001
0.32484275 -0.044876888 1.7220001
0.33060679 -0.042269357 1.7220001
-0.073971383 -0.036230877 1.7220001
-0.06491366 -0.034721255 1.7220001
-0.055855937 -0.034721259 1.7220001
-0.046798222 -0.033427298 1.7220001
-0.037740499 -0.031702019 1.7220001
0.30947208 -0.034721259 1.7220001
0.31852981 -0.037740499 1.7220001
0.3255747 -0.035727672 1.7220001
0.33060679 -0.034721259 1.7220001
-0.054346323 -0.02868278 1.7220001
-0.043778982 -0.028682778 1.7220001
-0.034117412 -0.027475085 1.7220001
-0.02566354 -0.02415392 1.7220001
-0.016605821 -0.022644302 1.7220001
0.19474098 -0.02717316 1.7220001
0.29739514 -0.0226443 1.7220001
0.33060679 -0.02566354 1.7220001
-0.014089786 -0.018618647 1.7220001
-0.00528367 -0.01132215 1.7220001
0.0037740502 -0.01283177 1.7220001
0.015096201 -0.01358658 1.7220001
0.02566354 -0.01358658 1.7220001
0.034721259 -0.01056734 1.7220001
0.043778982 -0.01056734 1.7220001
0.055855941 -0.01056734 1.7220001
0.073971383 -0.01207696 1.7220001
0.084538721 -0.012076959 1.7220001
0.094351254 -0.01132215 1.7220001
0.10476764 -0.011775036 1.7220001
0.11473111 -0.015096201 1.7220001
0.12529846 -0.013586581 1.7220001
0.13435619 -0.01056734 1.7220001
0.14190428 -0.01056734 1.7220001
0.15700048 -0.01056734 1.7220001
0.16515242 -0.011775036 1.7220001
0.17602168 -0.012982732 1.7220001
0.18266402 -0.01207696 1.7220001
0.2958855 -0.01811544 1.7220001
0.3024272 -0.013586581 1.7220001
0.33060679 -0.01811544 1.7220001
0.04830784 -0.0075480998 1.7220001
0.054346323 -0.0075480998 1.7220001
0.06491366 -0.0075480998 1.7220001
0.086048342 -0.0075480998 1.7220001
0.095106065 -0.0075480998 1.7220001
0.10114454 -0.0075480998 1.7220001
0.13586581 -0.0075480998 1.7220001
0.14794275 -0.00603848 1.7220001
0.15549086 -0.0075480998 1.7220001
0.30745926 -0.0025160334 1.7220001
0.31249133 -0.00150962 1.7220001
0.30645287 0.00150962 1.7220001
0.01358658 0.33815485 1.7220001
0.0075480998 0.34872222 1.7220001
0.011573753 0.34369016 1.7220001
-0.014089788 0.35677353 1.7220001
0.0075480998 0.35476074 1.7220001
-0.02566354 0.36079916 1.7220001
-0.00528367 0.36381841 1.7220001
0.0049601803 0.36597505 1.7220001
0.089184612 -0.49470782 1.7390001
0.09594366 -0.49496201 1.7372223
0.10474735 -0.4948971 1.7316669
0.11489718 -0.49405789 1.7310003
0.12625685 -0.49379778 1.7310002
0.1350584 -0.4947083 1.7310003
0.14214011 -0.49571991 1.7310001
0.15023349 -0.49470824 1.7310001
0.23020302 -0.49242103 1.7390001
0.25611991 -0.49470782 1.7390001
0.26456371 -0.49503472 1.7344288
0.27380219 -0.49275717 1.7310001
0.28478605 -0.49268493 1.7310001
0.29439694 -0.49015573 1.7310001
0.32778215 -0.49015573 1.7310001
0.33840472 -0.49470824 1.7310001
0.3475098 -0.49926078 1.7310001
0.07775069 -0.48174936 1.7390001
0.088640139 -0.48414508 1.7390002
0.096044965 -0.48479843 1.7390002
0.10478039 -0.48460147 1.7368183
0.11546225 -0.48464844 1.7330002
0.12595333 -0.48408568 1.7310001
0.13505837 -0.48408568 1.7310001
0.14188719 -0.48408568 1.7310001
0.15023349 -0.48560321 1.7310001
0.2362708 -0.48623729 1.7355716
0.24544828 -0.48429027 1.7390002
0.25459543 -0.48479843 1.7390002
0.26511276 -0.48451698 1.7380002
0.27540866 -0.48386267 1.7356669
0.28541735 -0.48417231 1.7344288
0.29393795 -0.48353413 1.7321428
0.32702181 -0.48395041 1.7323333
0.33669096 -0.48448697 1.7355716
0.34545699 -0.48205429 1.7390001
0.35310817 -0.48482677 1.7336668
0.37350821 -0.48479843 1.7390001
0.3817752 -0.4836868 1.7350001
0.07592126 -0.47473654 1.7390001
0.08655905 -0.47480428 1.7390002
0.09604498 -0.47412676 1.7390002
0.10502613 -0.47441137 1.7363334
0.11533076 -0.47498071 1.7310003
0.12595333 -0.47498062 1.7310001
0.13462481 -0.47584775 1.7310001
0.14112844 -0.47801566 1.7310001
0.23824906 -0.47801566 1.7310001
0.24583662 -0.47649813 1.7310001
0.25524515 -0.47376662 1.7310002
0.26557177 -0.47524586 1.7367145
0.27631986 -0.4745079 1.7390002
0.28525823 -0.47451562 1.7382002
0.29426277 -0.47483385 1.7375455
0.30033109 -0.47412679 1.739
0.31252727 -0.47260225 1.7390001
0.32535416 -0.47558767 1.7310002
0.33615282 -0.47624239 1.7370002
0.34301773 -0.47412673 1.739
0.37960634 -0.47412679 1.739
0.38089502 -0.47801566 1.7310001
0.076734342 -0.46294689 1.739
0.085881479 -0.46396324 1.7390002
0.096044973 -0.46497959 1.7390002
0.10508145 -0.46551746 1.7372224
0.11533076 -0.4658756 1.7310003
0.12595333 -0.46587557 1.7310001
0.13202336 -0.46739307 1.7310001
0.26708177 -0.46891057 1.7310001
0.27542806 -0.46587557 1.7310001
0.28561801 -0.46489632 1.7330002
0.29439694 -0.46435806 1.7310001
0.3460668 -0.46497962 1.7390001
0.37757361 -0.46497962 1.739
0.38453704 -0.46405458 1.7310002
0.089184612 -0.45659474 1.7390001
0.096044973 -0.45583248 1.7390002
0.10539743 -0.45601863 1.7374001
0.11533076 -0.45525295 1.7310004
0.12595333 -0.45525298 1.7310003
0.13202336 -0.45677051 1.7310001
0.29591444 -0.45879385 1.7310001
0.34756884 -0.45614982 1.7363334
0.35521394 -0.45430797 1.7390001
0.36131203 -0.45278344 1.7390001
0.37641171 -0.45392862 1.7336668
0.38241252 -0.45677054 1.7310001
0.089184612 -0.4436363 1.7390001
0.09604498 -0.44516084 1.7390002
0.1051921 -0.44516084 1.7390002
0.11533541 -0.4446345 1.7328464
0.12557395 -0.4450098 1.7310001
0.33536971 -0.44159541 1.7310001
0.3464981 -0.44361877 1.7310001
0.35550588 -0.44666517 1.733
0.36420238 -0.44766545 1.7310001
0.37235805 -0.44835511 1.7336668
0.089184612 -0.43448916 1.7390001
0.095994323 -0.43426704 1.7381113
0.10494781 -0.43501195 1.7350001
0.11551526 -0.43543243 1.7317275
0.12413231 -0.43613237 1.7310002
0.089946873 -0.42534199 1.739
0.095943667 -0.42490563 1.7372224
0.1047082 -0.42490277 1.7310003
0.11502726 -0.42480156 1.7310004
0.12291831 -0.42186779 1.7310001
0.096322156 -0.41508615 1.7390002
0.10449867 -0.41405192 1.7326
0.11415047 -0.41461742 1.7310001
0.097569495 -0.40704772 1.7390001
0.10538004 -0.40476444 1.7375457
0.11477496 -0.40475401 1.7318001
0.12534633 -0.40335417 1.7310002
0.1051921 -0.39485157 1.7390002
0.11542763 -0.39489138 1.7325003
0.12595333 -0.39455256 1.7310003
0.10606326 -0.38613996 1.7390002
0.11534726 -0.3856577 1.7375457
0.12540174 -0.38380256 1.7318001
0.13445139 -0.38575104 1.7310002
0.15023349 -0.38393003 1.7310001
0.10671663 -0.37960631 1.7390001
0.11580837 -0.37546933 1.7382002
0.12449066 -0.37441981 1.7334619
0.13419124 -0.37439141 1.7310001
0.15099226 -0.3740662 1.7310001
0.11738829 -0.36588562 1.7390001
0.12494585 -0.36501265 1.7365386
0.13505837 -0.36571991 1.7310001
0.14112844 -0.36875492 1.7310001
0.15175101 -0.36875492 1.7310001
-0.17227113 -0.35216489 1.7390001
-0.16922209 -0.35216489 1.7390001
0.12722318 -0.3565307 1.7380002
0.13531615 -0.35577703 1.7343335
0.14329632 -0.35314628 1.7310001
0.15326852 -0.35357985 1.7310001
-0.21269512 -0.34639031 1.733
-0.20752306 -0.34756884 1.7363335
-0.17461272 -0.34505492 1.7320001
-0.16718327 -0.34501013 1.7336668
0.12958448 -0.34911585 1.7390001
0.13568257 -0.34606683 1.7390002
0.14416344 -0.34447479 1.7310001
0.15469159 -0.3454718 1.7346367
0.16421306 -0.34339947 1.7321428
0.17147863 -0.34143975 1.7310001
-0.16323194 -0.33756012 1.7355716
-0.15551452 -0.33386606 1.7358001
-0.14482972 -0.33234611 1.7390001
-0.13507277 -0.3320412 1.7390001
-0.1277654 -0.33462718 1.7350001
-0.11988329 -0.3323347 1.7310001
0.13655373 -0.33735523 1.7390002
0.14449425 -0.33461782 1.7350001
0.15397686 -0.33539519 1.7390002
0.16459987 -0.33529741 1.7385002
0.17428939 -0.33491486 1.7318001
0.18058369 -0.3323347 1.7310001
-0.15377435 -0.32828799 1.7310001
-0.14416344 -0.32626465 1.7310002
-0.13475879 -0.32379749 1.7320001
-0.12747085 -0.32474715 1.7310001
0.14482972 -0.32510459 1.7390002
0.15397686 -0.32777253 1.7390001
0.16704419 -0.32515907 1.7390002
0.17544945 -0.3255555 1.7375457
0.18058369 -0.32474715 1.7310001
-0.12898836 -0.31715959 1.7310001
0.14787877 -0.31710082 1.7390001
0.16845983 -0.31633857 1.7390001
0.17513782 -0.31525528 1.7372224
0.18058367 -0.31412455 1.7310001
0.16922209 -0.30947822 1.7390001
0.17482048 -0.30493343 1.7368183
0.1821012 -0.30350199 1.7310001
0.17650969 -0.29577795 1.7378572
0.18365011 -0.29447144 1.7339092
0.18722413 -0.28566036 1.7363335
0.19289909 -0.28281984 1.7326
0.18860255 -0.27834606 1.7350001
0.1951461 -0.27489159 1.7345557
0.20284051 -0.27264598 1.7310001
0.19818804 -0.26984063 1.7390001
0.20650907 -0.26739416 1.7363335
0.2131981 -0.2637395 1.7340001
0.21674311 -0.25704831 1.7350001
0.22173326 -0.25217232 1.7363335
0.22715397 -0.24849731 1.7390001
0.23119102 -0.24336618 1.7350001
0.23782563 -0.23782563 1.7390001
0.24583225 -0.23364446 1.7374001
0.25328287 -0.23138861 1.7342001
0.25625283 -0.22551355 1.7358
0.26389289 -0.22244605 1.7350001
0.27163428 -0.22003895 1.7310001
0.25688219 -0.21572006 1.7390001
0.26526704 -0.21495779 1.7390002
0.27476245 -0.21395685 1.7340001
0.28073934 -0.2124514 1.7310001
0.25688216 -0.20581065 1.7390001
0.26526704 -0.20581065 1.7390002
0.27551249 -0.20549195 1.7363335
0.28195333 -0.20425685 1.7310002
0.25764444 -0.19818804 1.7390001
0.26526707 -0.19513898 1.7390002
0.27563381 -0.19605368 1.7390001
0.28328496 -0.19582827 1.7350001
0.26526704 -0.1844673 1.7390002
0.2752876 -0.18495379 1.7331818
0.28339499 -0.18589497 1.7310001
0.26568285 -0.175043 1.7390002
0.27398151 -0.17506444 1.7321428
0.28073934 -0.17754866 1.7310001
0.26831609 -0.1646485 1.7390002
0.27400196 -0.16493124 1.7340001
0.26984063 -0.15550138 1.7390001
0.27517286 -0.15415747 1.7342001
0.27551091 -0.14460762 1.7363334
0.27583858 -0.13582964 1.7360002
0.27797142 -0.12856813 1.739
0.28073934 -0.12595333 1.7310001
-0.24204284 -0.11305448 1.7310001
-0.23482858 -0.11501995 1.7316157
-0.22410493 -0.11129019 1.739
-0.21495779 -0.1112902 1.7390001
-0.23369655 -0.10774321 1.7310001
-0.2245525 -0.1051639 1.7339092
-0.21429855 -0.10487417 1.7336668
-0.20549506 -0.10503548 1.7363335
-0.19556645 -0.10448833 1.7374001
-0.18422686 -0.10418671 1.7367145
-0.17576587 -0.10326871 1.7374003
-0.16769756 -0.10214306 1.7390001
-0.22307396 -0.098638147 1.7310001
-0.21396892 -0.098638147 1.7310001
-0.20486385 -0.097879395 1.7310001
-0.19575879 -0.097424142 1.7310002
-0.18555008 -0.095879033 1.7310002
-0.17477781 -0.095750406 1.7336668
-0.1675678 -0.09597367 1.7376667
-0.18513623 -0.089533091 1.7310001
-0.1724903 -0.088521421 1.7310001
-0.16312312 -0.085823223 1.7358001
-0.1570259 -0.083848782 1.739
-0.16237357 -0.074357986 1.7310001
-0.15525709 -0.074588262 1.7363335
-0.14559197 -0.07241486 1.7390001
-0.13873163 -0.071652599 1.7390001
-0.16237357 -0.06525293 1.7310001
-0.1548439 -0.065279223 1.7316669
-0.14438553 -0.065358132 1.7336668
-0.1353358 -0.06539163 1.7345557
-0.12521374 -0.065725856 1.7360911
-0.11585011 -0.064124539 1.7355716
-0.15326852 -0.059182893 1.7310001
-0.14416344 -0.059182893 1.7310001
-0.13505839 -0.059182893 1.7310001
-0.12494165 -0.057159543 1.7310001
-0.11533076 -0.056147873 1.7310003
-0.10507209 -0.055093955 1.7324547
-0.095735669 -0.054711014 1.7334001
-0.085278556 -0.054402094 1.7346925
-0.074514195 -0.054336991 1.7346364
-0.065403722 -0.054763615 1.7350001
-0.05522785 -0.053018007 1.7368183
-0.045735702 -0.050309271 1.7390001
-0.074357986 -0.046284053 1.7310001
-0.06525293 -0.045525301 1.7310001
-0.0542165 -0.044283699 1.7310002
-0.044119224 -0.044125456 1.7354445
-0.035064038 -0.042686652 1.7390002
-0.026526708 -0.042381749 1.7390001
-0.015245232 -0.042178478 1.7390002
0.38696504 -0.044007789 1.7310001
0.39485154 -0.044211175 1.739
-0.043400787 -0.03672374 1.7310002
-0.03454176 -0.035304021 1.7320001
-0.025837414 -0.034961175 1.7336668
-0.01519205 -0.034946565 1.7330003
-0.0066062678 -0.033031337 1.739
0.11586377 -0.032014988 1.7390001
0.12348639 -0.032014988 1.7390001
0.30795372 -0.032014988 1.7390001
0.3152011 -0.034490194 1.7321428
0.32262263 -0.033081718 1.7310002
-0.025038915 -0.028073935 1.7310001
-0.014669263 -0.026809342 1.7310001
-0.0045735701 -0.025916897 1.7390002
0.0041924394 -0.025535766 1.7390002
0.01524523 -0.025916899 1.7390002
0.02589196 -0.025893521 1.7372223
0.035046116 -0.025905209 1.7381113
0.04374855 -0.025030712 1.7378572
0.054882839 -0.022867849 1.7390001
0.062505454 -0.022867849 1.7390001
0.075463906 -0.023630111 1.7390001
