# .PCD v0.7 - Point Cloud Data file format
VERSION 0.7
FIELDS x y z
SIZE 4 4 4
TYPE F F F
COUNT 1 1 1
WIDTH 1431
HEIGHT 1
VIEWPOINT 0 0 0 1 0 0 0
POINTS 1431
DATA ascii
-0.077518374 -0.081671141 1.5790001
-0.12265268 -0.078552842 1.572
-0.1171402 -0.078552842 1.572
-0.08130908 -0.078552842 1.572
-0.074100651 -0.076110765 1.5732728
-0.064936459 -0.073229723 1.576
-0.058006842 -0.070440605 1.5755
-0.053746682 -0.067527883 1.572
-0.045117795 -0.065838687 1.5755
-0.035907831 -0.063076317 1.5755
-0.027685134 -0.062291551 1.5790001
-0.033763938 -0.058570102 1.572
-0.024860773 -0.056632407 1.5755002
-0.015529163 -0.053494964 1.574625
-0.0083055403 -0.051217496 1.5790001
-0.0050599254 -0.046490803 1.5751112
0.0046131662 -0.043803092 1.5778335
0.013842566 -0.040143441 1.5790001
0.00757966 -0.039276421 1.572
0.015539136 -0.034878843 1.5755002
0.02297866 -0.032945313 1.5790001
0.026205758 -0.027583877 1.5731667
0.035306249 -0.024465011 1.5750002
0.044601209 -0.024252824 1.5764546
0.054447431 -0.021686688 1.5790001
0.062291551 -0.02076385 1.5790001
0.039965481 -0.01791556 1.572
0.045477957 -0.016813066 1.572
0.055890422 -0.015771819 1.572
0.064867787 -0.015185912 1.5743334
0.074253671 -0.014297849 1.5782225
0.081671141 -0.01245831 1.5790001
-0.13505577 -0.0041343602 1.572
0.066149756 -0.0096468404 1.572
0.075529218 -0.0075078704 1.5727779
0.085897833 -0.0058056954 1.575267
0.095063321 -0.0038051722 1.5772502
0.10461026 -0.0025707625 1.5790002
0.1148933 -0.0020763848 1.5790001
0.1245831 -0.0013842566 1.5790001
0.13150439 -0.0013842566 1.5790001
-0.16950876 0.0096468404 1.572
-0.14263542 0.0048234202 1.572
-0.13551514 0.0032156131 1.572
0.095090277 0.00137812 1.572
0.10515703 0.0038843504 1.5726365
0.11567914 0.0056241546 1.575231
0.12493702 0.0051257457 1.5760002
0.13535647 0.0055186171 1.5755002
0.14513217 0.0069069648 1.576667
0.15442531 0.0078345751 1.5774446
0.16195802 0.0096897967 1.5790001
-0.15297131 0.01791556 1.572
-0.14194636 0.01240308 1.572
-0.13919012 0.01240308 1.572
0.11989644 0.01240308 1.572
0.12816516 0.01240308 1.572
0.14424323 0.014240573 1.572
0.1549007 0.014608073 1.5720001
0.16420098 0.015554477 1.5772502
-0.16399628 0.027562398 1.572
-0.15434943 0.025265532 1.572
-0.14608072 0.0275624 1.572
0.16516255 0.023462811 1.5743333
0.17465326 0.026025761 1.5777276
0.18493667 0.02685458 1.5790002
0.19552626 0.026646942 1.5790002
0.20459314 0.02685458 1.5790002
0.21400607 0.027961988 1.5790001
0.22424957 0.02906939 1.5790001
0.23255512 0.02906939 1.5790001
-0.1638121 0.036222037 1.5726365
-0.15462504 0.035922997 1.5720003
-0.14676978 0.03514206 1.572
0.18742432 0.031696759 1.572
0.19569303 0.032615509 1.572
0.20580114 0.033147499 1.5755
0.2151297 0.035285041 1.5758183
0.22441414 0.035521533 1.5760003
0.23513739 0.035018653 1.5784619
0.24362917 0.03599067 1.5790001
-0.17226499 0.048234198 1.572
-0.16454753 0.045753583 1.5720001
-0.15440519 0.045494836 1.5725836
-0.14767772 0.045545463 1.5743333
0.22601168 0.044099838 1.572
0.23493113 0.044476107 1.5757335
0.24446553 0.044615157 1.5770912
0.25470325 0.045680467 1.5790004
0.26494676 0.045957319 1.5790002
0.27269855 0.047064729 1.5790001
-0.17161784 0.05610754 1.5762001
-0.16483681 0.054749023 1.5725002
-0.15464973 0.055229511 1.5750628
0.23634759 0.054091208 1.572
0.24562341 0.055018798 1.5720003
0.25566161 0.055050828 1.5790004
0.26577732 0.055370271 1.5790004
0.27269855 0.055370264 1.5790001
-0.17192468 0.066167459 1.5790001
-0.16551755 0.064664565 1.5790002
-0.1558844 0.064837106 1.5735556
0.23565851 0.062015399 1.572
0.24943972 0.064771637 1.572
0.25571314 0.064963922 1.5766667
0.26383933 0.064506367 1.5790001
-0.17524686 0.075303569 1.5790002
-0.16680293 0.073365599 1.5790001
-0.15721202 0.0729701 1.5790002
0.24825847 0.074615359 1.5719999
0.25523809 0.074502863 1.5737501
0.26577732 0.074749865 1.5790004
0.27491337 0.075303555 1.5790002
0.28308049 0.075441986 1.5790001
-0.17718485 0.081671141 1.5790001
0.24943972 0.082687199 1.572
0.25589326 0.084578171 1.575889
0.26415986 0.084362328 1.5776002
0.27148965 0.08130908 1.572
-0.1432105 -0.10566989 1.5860001
-0.13556334 -0.09593714 1.5860001
-0.12420848 -0.092229426 1.5860001
-0.11540265 -0.091765963 1.5860001
-0.10626578 -0.091964588 1.5860002
-0.094268665 -0.092044041 1.5860001
-0.08481399 -0.087594777 1.5860001
-0.075081237 -0.0834236 1.5860001
-0.065348484 -0.078325488 1.5860001
-0.055417109 -0.073293589 1.5860002
-0.047273375 -0.070910059 1.5860001
-0.0417118 -0.068129271 1.5860001
-0.034759831 -0.067202337 1.5860001
-0.024749 -0.064236179 1.5860001
-0.01668472 -0.062567696 1.5860001
-0.0208559 -0.059786912 1.5860001
-0.01459913 -0.059091717 1.5860001
-0.0055615734 -0.05283495 1.5860001
0.0055615734 -0.047273375 1.5860001
0.015294326 -0.0417118 1.5860001
0.0208559 -0.040321406 1.5860001
0.025861314 -0.03531599 1.5860001
0.034203675 -0.033091359 1.5860001
0.044492587 -0.031979047 1.5860001
0.045882981 -0.029198259 1.5860001
0.055893809 -0.025305158 1.5860001
0.065348484 -0.022246294 1.5860001
0.072300449 -0.0208559 1.5860001
0.075081244 -0.018075114 1.5860001
0.085370146 -0.014182012 1.5860001
0.095010214 -0.01251354 1.5860001
0.10288911 -0.01251354 1.5860001
0.096632339 -0.0090375561 1.5860001
0.10566989 -0.0076471632 1.5860002
0.11540265 -0.0058396519 1.5860001
0.12318885 -0.0052834949 1.5860001
0.13486816 -0.0023173222 1.5860001
0.14460091 -0.0013903934 1.5860001
0.14599131 0.0013903934 1.5860001
0.15572405 0.0034759832 1.5860001
0.1654568 0.0083423601 1.5860001
0.1682376 0.01251354 1.5860001
0.17472608 0.016221255 1.5860002
0.18353191 0.018075114 1.5860001
0.19558199 0.017148186 1.5860001
0.20633438 0.015850484 1.5860002
0.21495481 0.0169628 1.5860001
0.17518955 0.0208559 1.5860001
0.18561751 0.021551095 1.5860001
0.19372813 0.02178283 1.5860001
0.20624167 0.021782828 1.5860001
0.21590821 0.022842178 1.5860002
0.22486453 0.023889484 1.5860003
0.23532407 0.025027081 1.5860002
0.24433003 0.026670272 1.5860003
0.25258812 0.028271331 1.5860001
0.24721193 0.033647519 1.5860001
0.25444195 0.034759834 1.5860002
0.26324782 0.036613688 1.5860001
0.27112669 0.037540618 1.5860001
0.2488804 0.040321406 1.5860001
0.25444198 0.040321406 1.5860001
0.26417473 0.040321406 1.5860001
0.27483442 0.044647079 1.5860002
0.28364024 0.048663765 1.5860001
0.26556513 0.057006124 1.5860001
0.27668828 0.05523653 1.5860003
0.28503063 0.055615734 1.5860003
0.29059219 0.057006132 1.5860001
-0.17657995 0.066738874 1.5860001
-0.16267602 0.066738874 1.5860001
0.26626033 0.066043682 1.5860001
0.27529788 0.065348484 1.5860003
0.28503063 0.065348484 1.5860002
0.29128739 0.066043682 1.5860001
-0.17379917 0.07415431 1.5860001
-0.16490065 0.074247003 1.5860001
0.27946907 0.072300449 1.5860001
0.28558677 0.072022378 1.5860001
0.29429993 0.071836986 1.5860001
-0.17657995 0.083887063 1.5860001
0.26000354 0.090375565 1.5860001
-0.1877031 0.11262186 1.5860001
-0.19048388 0.12930658 1.5860001
-0.18677616 0.12837966 1.5860001
-0.19187428 0.13556334 1.5860001
-0.18631272 0.13486814 1.5860001
-0.19187428 0.14321052 1.5860001
-0.18631272 0.14460091 1.5860002
-0.1467277 -0.11039513 1.5940001
-0.14253548 -0.10760031 1.5940001
-0.13741165 -0.1029423 1.5940002
-0.13368523 -0.098284267 1.5940002
-0.12576661 -0.097818464 1.594
-0.11458734 -0.097818464 1.594
-0.10480549 -0.097818464 1.594
-0.095223285 -0.096820317 1.594
-0.087105013 -0.091763042 1.5940002
-0.082446992 -0.088036619 1.5940001
-0.075459957 -0.086639211 1.5940001
-0.066376813 -0.083145693 1.5940001
-0.061485894 -0.079652183 1.5940001
-0.054498859 -0.077556074 1.5940001
-0.045182813 -0.073596753 1.594
-0.035494126 -0.072385661 1.5940001
-0.032140352 -0.068472929 1.5940001
-0.024314877 -0.067913964 1.5940001
-0.015371474 -0.065678112 1.5940001
-0.0046580224 -0.056362066 1.594
0.0034935167 -0.05240275 1.5940001
0.0083844401 -0.048909232 1.5940001
0.015371474 -0.045648616 1.594
0.02487384 -0.041642718 1.5940001
0.032140352 -0.040524792 1.5940001
0.027948134 -0.037729979 1.5940001
0.035633869 -0.037031274 1.5940001
0.044717014 -0.034935165 1.5940001
0.054498855 -0.032140352 1.5940002
0.054498862 -0.02934554 1.5940002
0.064280711 -0.026550727 1.594
0.075459957 -0.022358507 1.5940001
0.082446992 -0.0209611 1.5940001
0.079652183 -0.018166287 1.5940001
0.085241802 -0.018166287 1.5940002
0.09548945 -0.015371473 1.594
0.10480549 -0.015371474 1.5940001
0.11179253 -0.01257666 1.5940001
0.11318994 -0.0097818468 1.5940002
0.12660503 -0.0075459955 1.5940001
0.13554844 -0.0051238243 1.5940002
0.14533028 -0.00419222 1.5940001
0.15441345 -0.00209611 1.5940001
0.16163337 -0.0023290112 1.5940002
0.15650955 0.0013974067 1.5940001
0.16461451 0.0036332575 1.5940001
0.17374422 0.008850242 1.5940002
0.18026546 0.0083844401 1.5940001
0.20728199 0.008850242 1.5940002
0.21380322 0.0097818468 1.5940001
0.17607324 0.01257666 1.5940001
0.18505657 0.014572956 1.594
0.19470535 0.013508265 1.594
0.20402136 0.01257666 1.5940001
0.21729673 0.013275363 1.5940001
0.22463311 0.015720826 1.594
0.23476432 0.01676888 1.594
0.24454618 0.018166287 1.5940002
0.23429851 0.0209611 1.5940002
0.24454618 0.0209611 1.5940002
0.25432801 0.024454616 1.594
0.26341116 0.028646838 1.5940001
0.26643887 0.033071954 1.594
0.2745904 0.035633869 1.5940001
0.27808392 0.041922197 1.5940001
0.28407282 0.044118125 1.594
0.29205799 0.048909232 1.5940001
0.29415411 0.053800158 1.5940001
0.29597074 0.06456019 1.5940001
0.30044243 0.068472929 1.5940001
-0.16349658 0.078953475 1.5940001
-0.15790695 0.079652183 1.5940001
-0.18166286 0.088036619 1.5940001
-0.17374422 0.086173408 1.594
-0.1681546 0.083378591 1.5940002
-0.18306027 0.095912911 1.594
-0.17523479 0.095023654 1.594
-0.19144471 0.1048055 1.5940001
-0.18725248 0.10480551 1.594
-0.17537452 0.1048055 1.5940001
-0.16768879 0.1048055 1.5940001
-0.18705286 0.11478697 1.594
-0.17502518 0.11423799 1.594
-0.1690862 0.11458735 1.5940001
-0.1863209 0.12483499 1.594
-0.16796827 0.12381023 1.5940001
-0.19144471 0.13554844 1.5940001
-0.18306027 0.13554844 1.5940002
-0.19144471 0.14952251 1.5940001
-0.18236157 0.14323418 1.5940001
-0.19214341 0.15441345 1.5940001
-0.18725248 0.15511213 1.594
-0.19284213 0.16279787 1.5940001
-0.18585509 0.16070177 1.5940001
-0.14487255 -0.11393248 1.6044286
-0.13964511 -0.11143398 1.6090001
-0.13394308 -0.10612801 1.6045556
-0.12522745 -0.1041252 1.605
-0.11481362 -0.10450694 1.6036667
-0.10544109 -0.10544577 1.6036668
-0.096178725 -0.10381199 1.6032858
-0.087924697 -0.10108989 1.6090001
-0.092633858 -0.099651575 1.6010001
-0.083258875 -0.094822511 1.6036667
-0.074948117 -0.093438767 1.6044285
-0.065441035 -0.092830107 1.6078573
-0.057832822 -0.091686182 1.6090001
-0.072984248 -0.08842323 1.6010001
-0.063510336 -0.086668797 1.601
-0.054836381 -0.084754772 1.603909
-0.04560665 -0.082495905 1.6058
-0.03667447 -0.080401726 1.6090001
-0.042808075 -0.076493114 1.6010001
-0.03442714 -0.076589547 1.6030002
-0.02585325 -0.073903523 1.6025999
-0.016046682 -0.072923765 1.6058
-0.014035434 -0.06877362 1.6010001
-0.0063293874 -0.063530721 1.6043333
0.0035246382 -0.061283823 1.6070001
0.006677351 -0.055862736 1.603
0.015080044 -0.054094467 1.6055715
0.023979463 -0.052190598 1.6090001
0.032442804 -0.052190598 1.6090001
0.01684252 -0.049124017 1.6010001
0.02585325 -0.046927437 1.6025999
0.035424743 -0.045405194 1.6046364
0.045027938 -0.043623224 1.605
0.055011708 -0.042316701 1.6090001
0.063945234 -0.04184651 1.6090001
0.044913389 -0.037895668 1.6010001
0.054831699 -0.036555246 1.6036667
0.064752944 -0.035195541 1.6056665
0.07440687 -0.034911275 1.6090001
0.083222836 -0.032442804 1.6090001
0.065966539 -0.029474409 1.6010002
0.074843906 -0.027490389 1.6021429
0.084733844 -0.025907377 1.6032857
0.094686136 -0.025004622 1.6046922
0.10390213 -0.024473263 1.6075455
0.11284453 -0.022568906 1.6090001
0.094037406 -0.018246064 1.6010002
0.10666929 -0.018246064 1.6010001
0.11588621 -0.016035462 1.6042
0.12540239 -0.015502097 1.6072223
0.13522464 -0.015253919 1.6082727
0.14478312 -0.014701074 1.6078573
0.15516123 -0.014105565 1.6090001
0.16221401 -0.01269501 1.6090001
0.11930119 -0.0098248031 1.6010001
0.12772244 -0.0098248031 1.6010001
0.13567585 -0.008889108 1.601
0.14456497 -0.0084212599 1.601
0.15510829 -0.0075889528 1.6026001
0.16497749 -0.0063352319 1.605
0.17269243 -0.0038286541 1.6090001
0.18760404 -0.0028211132 1.6090001
0.19465682 -0.0014105566 1.6090001
0.20453072 -0.0014105566 1.6090001
0.2115835 -0.0014105566 1.6090001
0.1684252 0.0028070866 1.6010001
0.17559913 0.004215539 1.6050001
0.18554336 0.0064612092 1.6034
0.19518343 0.0055143009 1.6053077
0.20417027 0.0051515852 1.6043334
0.21471696 0.0044702827 1.6046364
0.22461325 0.0068024951 1.6063334
0.23626824 0.0091686184 1.6090001
0.24515474 0.0093096737 1.609
0.25248966 0.0098738968 1.6090001
0.18947835 0.01263189 1.6010001
0.22877756 0.01263189 1.6010001
0.23439173 0.01263189 1.6010002
0.24499539 0.013843943 1.6021429
0.25489077 0.01548729 1.6063334
0.26518464 0.016926682 1.6090001
0.27505854 0.018337237 1.6090001
0.28070077 0.018337237 1.6090001
0.2587198 0.021988846 1.6010002
0.26611763 0.023548802 1.6040001
0.27448988 0.025330991 1.6056666
0.28417289 0.026149549 1.6089998
0.27790159 0.03368504 1.6010001
0.2855536 0.035161834 1.6045556
0.29445368 0.035616554 1.6090001
0.30138895 0.037144657 1.6090001
0.28772637 0.042106301 1.6010001
0.29391581 0.044111937 1.6025999
0.30427721 0.045742333 1.6089998
0.31173301 0.045137815 1.6090001
0.29895473 0.05473819 1.6010002
0.30417764 0.0549182 1.6063334
0.29895473 0.061755907 1.6010001
0.30246359 0.063861221 1.6010001
-0.16452648 0.086239934 1.601
-0.17263582 0.095440947 1.6010001
-0.16758308 0.09487953 1.6010001
-0.18246062 0.10526574 1.601
-0.17488149 0.10526575 1.6010001
-0.1684252 0.10526575 1.6010001
-0.18246062 0.11509055 1.601
-0.17474113 0.11579232 1.6010001
-0.18246062 0.12491535 1.601
-0.1754429 0.12491536 1.601
-0.1810571 0.13474016 1.6010001
-0.17544289 0.13474017 1.601
-0.1810571 0.1459685 1.6010001
-0.17712717 0.14400354 1.6010001
-0.18257548 0.15448883 1.602
-0.17825 0.15438977 1.6010001
-0.19453111 0.16814449 1.6010001
-0.18572687 0.16502334 1.603909
-0.1788438 0.1647663 1.6063334
-0.19410743 0.17568542 1.6071537
-0.18729311 0.17603202 1.6063334
-0.2017096 0.18337236 1.6090001
-0.19606738 0.18196182 1.6090001
-0.18760404 0.18478292 1.6090001
-0.19042514 0.19042514 1.6090001
-0.18760404 0.1918357 1.6090001
-0.14025263 -0.11475216 1.6160001
-0.13458587 -0.11191877 1.6160001
-0.11191877 -0.11191877 1.6160001
-0.10625199 -0.11191877 1.6160001
-0.12466902 -0.10908539 1.6160001
-0.11616886 -0.10908539 1.6160001
-0.10058523 -0.10908539 1.6160001
-0.094918452 -0.10814092 1.6160001
-0.083018228 -0.10228525 1.6159999
-0.076973669 -0.10152969 1.6160001
-0.073668048 -0.097751841 1.6160001
-0.065167896 -0.097043499 1.6160001
-0.055251036 -0.093029529 1.6160001
-0.049584266 -0.092085063 1.6160001
-0.045334186 -0.087834992 1.6160001
-0.034708988 -0.082876556 1.6160001
-0.029750559 -0.080751516 1.6160001
-0.022667093 -0.077918135 1.6160001
-0.015583627 -0.076501444 1.6160001
-0.0042500799 -0.06847351 1.6160001
0.0051945425 -0.063751198 1.6160001
0.01275024 -0.060917813 1.6160001
0.017000321 -0.058084425 1.6160001
0.024556018 -0.055723269 1.6160001
0.035417333 -0.053362116 1.6160001
0.045334186 -0.049584266 1.6160001
0.055251043 -0.046750885 1.6160001
0.065167896 -0.045334183 1.6160001
0.075084746 -0.041084107 1.6160001
0.077918135 -0.038250718 1.6160001
0.08500161 -0.035417333 1.6160001
0.094918452 -0.032583948 1.6160001
0.10341861 -0.032583948 1.6160001
0.10625201 -0.028806096 1.6160001
0.11569662 -0.024083786 1.6160001
0.12419679 -0.022194861 1.6160001
0.13458587 -0.021250403 1.6160001
0.14166933 -0.021250401 1.6160001
0.13741925 -0.018417014 1.6160001
0.1473361 -0.018417014 1.6160001
0.15441957 -0.018417014 1.6160001
0.16575313 -0.014166933 1.6160001
0.16858651 -0.0099168532 1.6160001
0.17708667 -0.0062739276 1.6160001
0.18417013 -0.0028333864 1.6160001
0.19550367 -0.005194542 1.6160001
0.20542054 -0.0056667733 1.6160001
0.21590407 -0.0048167575 1.6159999
0.22525424 -0.0021250399 1.6160001
0.24508795 -0.0014166933 1.6160001
0.18700352 0.0014166933 1.6160001
0.1912536 0.0014166933 1.6160001
0.22667092 0.0014166933 1.6160001
0.23564333 0.0039352593 1.6160001
0.24468319 0.0042500799 1.6160001
0.25516221 0.0067686457 1.6160001
0.26492167 0.0085001597 1.6160001
0.27342179 0.0085001597 1.6160001
0.26492167 0.012750241 1.6160001
0.27544567 0.013964548 1.6160001
0.28418869 0.016150305 1.6159999
0.28758875 0.021250401 1.6160001
0.29490834 0.025736593 1.6159998
0.30270013 0.028806098 1.6160001
0.31308922 0.029750559 1.6160001
0.2989223 0.032583948 1.6160001
0.30553353 0.034472872 1.6160001
0.31422257 0.03598401 1.6159999
0.30742246 0.041084107 1.6160001
0.31379756 0.041792456 1.6160001
0.30742246 0.062334508 1.6160001
-0.18558683 0.16858651 1.6160001
-0.18437251 0.17506282 1.6160001
-0.17992005 0.17141989 1.6160001
-0.20258714 0.18842021 1.6160001
-0.19503146 0.18653126 1.6160001
-0.18700352 0.18700352 1.6160001
-0.20447606 0.19597591 1.6160001
-0.19578703 0.19578703 1.6159997
-0.18653129 0.1959759 1.6160001
-0.2110873 0.20542054 1.6160001
-0.20506635 0.20506635 1.6160001
-0.1955037 0.20542051 1.6159998
-0.18842022 0.20542054 1.6160001
-0.20353161 0.21203177 1.6160001
-0.19611084 0.21230161 1.6160001
-0.18842021 0.2110873 1.6160001
-0.22242086 0.26350498 1.6160001
-0.21958746 0.26208827 1.6160001
-0.20542054 0.26633835 1.6160001
-0.22525424 0.27200514 1.6160001
-0.20400384 0.27058843 1.6160001
-0.14664179 -0.12243877 1.6240001
-0.14237067 -0.11816765 1.6240001
-0.13525212 -0.11674394 1.6240002
-0.12528618 -0.11389654 1.6240003
-0.11588973 -0.11418128 1.6240002
-0.10535429 -0.11460838 1.6240001
-0.095957831 -0.1136118 1.6240002
-0.092540935 -0.10962541 1.6240001
-0.086276621 -0.10734749 1.6240002
-0.073558174 -0.10298145 1.6240001
-0.066439651 -0.10203231 1.6240002
-0.061219387 -0.098235756 1.6240001
-0.055524558 -0.096812055 1.6240001
-0.046982318 -0.093490072 1.6240001
-0.042711198 -0.089693516 1.6240001
-0.036304519 -0.087557964 1.6240001
-0.025626719 -0.081863135 1.6240001
-0.014237067 -0.078303866 1.6240001
-0.0071185329 -0.072609037 1.6240001
-0.0014237066 -0.069761626 1.6240001
0.0059795678 -0.066344731 1.6240002
0.015660774 -0.062643096 1.6240001
0.024203012 -0.061219383 1.6240001
0.032745253 -0.061219387 1.6240001
0.028948702 -0.057422835 1.6240001
0.035592668 -0.056948267 1.6240001
0.044704389 -0.053246628 1.6240002
0.055524558 -0.049829733 1.6240001
0.065965079 -0.047931459 1.6240001
0.074032746 -0.044134907 1.6240001
0.083998688 -0.041287493 1.6240001
0.086846113 -0.038440078 1.6240001
0.094676487 -0.036304519 1.6240001
0.10620852 -0.035023183 1.6240002
0.11342197 -0.03369439 1.6240001
0.10962541 -0.029897841 1.6240001
0.11588973 -0.028758874 1.6240002
0.12576076 -0.026101289 1.6240002
0.13525213 -0.025626719 1.6240002
0.14436385 -0.02363353 1.6240002
0.15518403 -0.021355599 1.6240001
0.15518403 -0.018508187 1.6240001
0.16514996 -0.017796334 1.6240001
0.17454644 -0.013952325 1.6240002
0.18081075 -0.012813359 1.6240001
0.20786117 -0.012813359 1.6240001
0.17796333 -0.0099659469 1.6240001
0.18508187 -0.007830387 1.6240001
0.19220039 -0.0071185334 1.6240001
0.20501375 -0.0092540933 1.6240001
0.21497969 -0.0099659469 1.6240001
0.22573659 -0.0077512925 1.6240003
0.23491161 -0.0014237066 1.6240001
0.24392843 -0.0028474135 1.6240002
0.25484347 -0.0014237066 1.6240001
0.26196203 -0.0014237066 1.6240001
0.23206419 0.0014237066 1.6240001
0.24914867 0.0014237066 1.6240001
0.25484347 0.0014237066 1.6240001
0.26480946 0.0028474131 1.6240003
0.27420589 0.0031321547 1.6240002
0.28291085 0.00793208 1.6240003
0.28806332 0.013762497 1.6240001
0.2947073 0.017796334 1.6240001
0.30182582 0.018508187 1.6240001
0.31463918 0.012813359 1.6240001
0.2975547 0.021355599 1.6240001
0.30574101 0.024914866 1.6240003
0.31369004 0.027999565 1.6240001
0.32033399 0.029897841 1.6240001
0.31463918 0.032745253 1.6240001
0.32033399 0.032745253 1.6240001
-0.18081075 0.17653963 1.6240001
-0.18460728 0.18508188 1.6240002
-0.1853666 0.19561729 1.6240002
-0.1853666 0.20302054 1.6240002
-0.21554919 0.21611866 1.6240002
-0.2059629 0.21687798 1.6240002
-0.19504781 0.21687798 1.6240001
-0.21497969 0.22209823 1.6240002
-0.20460701 0.22433551 1.6240004
-0.1966749 0.22433548 1.6240003
-0.22067453 0.23775901 1.6240001
-0.21782711 0.23775901 1.6240001
-0.20453918 0.23586072 1.6240001
-0.19718337 0.23562345 1.6240001
-0.21497971 0.24914867 1.6240001
-0.20928487 0.24060643 1.6240001
-0.19718337 0.24345385 1.6240001
-0.22067453 0.25484347 1.6240001
-0.21497971 0.25484347 1.6240003
-0.20700696 0.25484347 1.6240002
-0.19789523 0.25341979 1.6240001
-0.22281009 0.26623315 1.6240001
-0.21497969 0.26480946 1.6240004
-0.20643745 0.26496762 1.6240003
-0.2225728 0.2728771 1.6240001
-0.21497971 0.27335167 1.6240002
-0.20833574 0.27382624 1.6240001
-0.20643747 0.29185987 1.6240001
-0.14430231 -0.12422314 1.6362002
-0.13436024 -0.12445853 1.6351819
-0.12480631 -0.1244517 1.6363751
-0.11549332 -0.12328989 1.6380001
-0.10489054 -0.12213282 1.6390001
-0.13019551 -0.11874976 1.6320001
-0.12447264 -0.11874976 1.6320001
-0.1144576 -0.11874976 1.6320001
-0.1037272 -0.1180344 1.6320001
-0.093604624 -0.11700987 1.6343335
-0.084572025 -0.11324643 1.6351112
-0.075511158 -0.1111182 1.6376002
-0.074397437 -0.107304 1.6320001
-0.063975804 -0.10643557 1.6362002
-0.054452505 -0.10317982 1.6346251
-0.04741627 -0.10201682 1.6390001
-0.05150592 -0.098719679 1.6320001
-0.043996144 -0.096796766 1.6340001
-0.034796093 -0.093703955 1.6351819
-0.025001306 -0.091671452 1.6390002
-0.018679136 -0.090521969 1.6390001
-0.03004512 -0.087273918 1.6320001
-0.024337582 -0.085905582 1.6331668
-0.015202452 -0.084346026 1.6362002
-0.0071842833 -0.081900828 1.6390001
-0.01001504 -0.077258877 1.6320001
-0.0038912729 -0.07679037 1.6350001
0.0043044332 -0.074135989 1.6366668
0.013285555 -0.072164454 1.6381251
0.024426563 -0.070405975 1.6390001
0.031610847 -0.070405975 1.6390001
0.015165632 -0.06667155 1.6320002
0.02432224 -0.065813117 1.6320001
0.034511421 -0.064720072 1.6339092
0.043554991 -0.063656665 1.6378335
0.050289985 -0.061784837 1.6390001
0.038629439 -0.05865952 1.6320001
0.044965111 -0.057565264 1.6334002
0.054312035 -0.05558924 1.6351112
0.064947195 -0.053469218 1.6372501
0.074678957 -0.051699992 1.6381251
0.084774546 -0.052804485 1.6390001
0.09483254 -0.050289985 1.6390001
0.076543517 -0.046498399 1.6320001
0.084531121 -0.045850545 1.6343335
0.094562531 -0.044419825 1.6343335
0.10459188 -0.044419825 1.6343334
0.11430798 -0.043525327 1.6366668
0.12356967 -0.041668843 1.6390001
0.14799623 -0.041668843 1.6390001
0.15374367 -0.041668843 1.6390001
0.097288959 -0.038629439 1.6320001
0.10444256 -0.038629439 1.6320001
0.11588831 -0.036994331 1.6320001
0.12465162 -0.034391489 1.6343335
0.1348138 -0.034114957 1.6348001
0.14481261 -0.034417059 1.6355001
0.15497534 -0.034442753 1.6368126
0.16482797 -0.032226644 1.6390001
0.14641035 -0.026229866 1.6320001
0.1548039 -0.024894528 1.6320002
0.1645328 -0.02432224 1.6320001
0.17403476 -0.023325907 1.6372501
0.18535452 -0.021552851 1.6390001
0.19397564 -0.021552851 1.6390001
0.20690736 -0.02155285 1.6390001
0.21409164 -0.021552851 1.6390001
0.17555968 -0.018043026 1.6334002
0.18529473 -0.014895444 1.6334002
0.19504853 -0.014347473 1.6359376
0.20463824 -0.01547521 1.6374445
0.21533293 -0.016027061 1.6345456
0.22515967 -0.015779514 1.6358889
0.23552929 -0.014636302 1.6362001
0.24558452 -0.012926937 1.6382222
0.25360522 -0.010776426 1.6390001
0.26438165 -0.010057997 1.6390001
0.27300277 -0.010057997 1.6390001
0.2360688 -0.0057228799 1.6320001
0.24465312 -0.0071536 1.6320001
0.25480545 -0.0057267151 1.6328751
0.26509196 -0.0051097139 1.6320001
0.27419144 -0.0040152213 1.6341002
0.28388181 -0.0034895092 1.6390001
0.30605045 -0.0014368567 1.6390001
0.27899039 0.00143072 1.6320001
0.28577647 0.0025777505 1.6348002
0.29427877 0.0043051154 1.6374445
0.30450466 0.0043080132 1.6384168
0.31294736 0.0048853131 1.6390002
0.295086 0.0125188 1.6320001
0.30471975 0.013144421 1.6332729
0.31343403 0.014448982 1.6339092
0.3218559 0.01293171 1.6390001
0.30760479 0.0214608 1.6320001
0.31389993 0.022605376 1.6320002
0.32477343 0.034337278 1.6320001
-0.18170144 0.18170144 1.6320001
-0.21203271 0.21317728 1.6320002
-0.21603872 0.22748448 1.6320001
-0.21487451 0.23431246 1.6340001
-0.20530833 0.23535344 1.6320001
-0.19600864 0.23320736 1.6320001
-0.21533738 0.24529709 1.6345456
-0.2047907 0.24488769 1.6335557
-0.19696246 0.24656075 1.6320001
-0.21031584 0.25037599 1.6320001
-0.2049109 0.25387332 1.6320001
-0.20304914 0.26261622 1.6334002
-0.22247696 0.27612895 1.6320001
-0.214608 0.27899039 1.6320001
-0.22490244 0.28476802 1.6370001
-0.21537508 0.28573295 1.6378335
-0.22558649 0.29455566 1.6390001
-0.21515059 0.29403248 1.6360835
-0.2074544 0.29615903 1.6320001
-0.23133393 0.3017399 1.6390001
-0.22558649 0.30317676 1.6390001
-0.21461603 0.30363977 1.6379231
-0.2063552 0.30410904 1.6330001
-0.21265478 0.31179789 1.6390001
-0.20834422 0.31179789 1.6390001
-0.15305021 -0.13283604 1.6470001
-0.14871861 -0.13139217 1.6470001
-0.13283604 -0.13139217 1.6470001
-0.12561668 -0.13139217 1.647
-0.11984121 -0.13139217 1.6470001
-0.14294313 -0.12850443 1.647
-0.12561668 -0.12850443 1.6470001
-0.1155096 -0.12778249 1.6470001
-0.10540251 -0.12489475 1.6470001
-0.096739292 -0.12272895 1.647
-0.090963811 -0.11984121 1.6470001
-0.0866322 -0.11984121 1.6470001
-0.075081237 -0.11478767 1.6470001
-0.064974152 -0.11117799 1.647
-0.05919867 -0.11117799 1.6470001
-0.054867059 -0.10829025 1.6470001
-0.04475997 -0.10347735 1.647
-0.033209011 -0.098664455 1.647
-0.024545789 -0.095776714 1.647
-0.01588257 -0.092407688 1.6470001
-0.01010709 -0.0866322 1.6470001
-0.0043316102 -0.083263166 1.647
0.00144387 -0.082300588 1.6470001
0.0057754801 -0.079412848 1.6470001
0.0150575 -0.077350177 1.6470002
0.024545789 -0.074359298 1.6470001
0.034652881 -0.072193503 1.6470001
0.041872229 -0.070749633 1.6470001
0.046685129 -0.066899307 1.647
0.052845638 -0.064396605 1.6470001
0.0577548 -0.05919867 1.6470001
0.064974152 -0.059198666 1.647
0.075081237 -0.056310929 1.6470001
0.085188329 -0.058476739 1.6470001
0.094332844 -0.054385766 1.6470002
0.10540251 -0.050535452 1.647
0.11695347 -0.047647711 1.647
0.12561668 -0.0433161 1.6470001
0.13427991 -0.041872229 1.647
0.14438701 -0.042594165 1.6470001
0.15449409 -0.04475997 1.647
0.16171345 -0.041872229 1.6470001
0.13427991 -0.038984489 1.6470001
0.16662261 -0.037829392 1.6470001
0.17413072 -0.031476367 1.6470001
0.20936115 -0.03032127 1.6470001
0.17615214 -0.027433529 1.6470001
0.18481536 -0.025989659 1.6470002
0.19492245 -0.025989659 1.6470002
0.20445199 -0.025123337 1.6470001
0.21455908 -0.025700886 1.6470001
0.2246249 -0.022895653 1.6470002
0.23592834 -0.022813145 1.6470001
0.24459156 -0.022235598 1.6470001
0.25267726 -0.02165805 1.6470001
0.24690175 -0.018770309 1.647
0.25556496 -0.015882568 1.6470002
0.26422819 -0.014438699 1.6470002
0.2748166 -0.013957409 1.6470002
0.28408143 -0.012633862 1.6470002
0.29503074 -0.01010709 1.647
0.3032127 -0.01010709 1.6470001
0.28588626 -0.00721935 1.6470001
0.29494324 -0.0045941323 1.6470001
0.30424401 -0.0051566786 1.6470002
0.3133198 -0.00144387 1.6470001
0.32342687 0.01588257 1.6470001
-0.22813146 0.29021788 1.6470001
-0.23246306 0.30754432 1.6470001
-0.22586252 0.30506912 1.6470002
-0.23246306 0.31187594 1.6470001
-0.22544996 0.31166968 1.6470002
-0.21637425 0.315795 1.6470002
-0.20936115 0.31620753 1.6470001
-0.15234275 -0.13493215 1.6550001
-0.14508833 -0.13275583 1.6550001
-0.13493215 -0.1339649 1.6550001
-0.12448578 -0.1355125 1.6550001
-0.11520014 -0.13319108 1.6550001
-0.10591448 -0.13203038 1.6550001
-0.11171801 -0.12912862 1.6550001
-0.10359307 -0.12854828 1.6550001
-0.09389288 -0.12705593 1.655
-0.085602127 -0.1238087 1.6550001
-0.078831322 -0.12139057 1.6550001
-0.073995054 -0.11752155 1.6550001
-0.065870106 -0.11578049 1.6550001
-0.055423744 -0.11287872 1.6550001
-0.044977382 -0.10736537 1.6550001
-0.034821197 -0.10228727 1.6550001
-0.0261159 -0.10011095 1.6550001
-0.02176325 -0.097209185 1.6550001
-0.014218656 -0.095468126 1.6550001
-0.0037722967 -0.087343171 1.6550001
0.0043526501 -0.083667606 1.6550001
0.011607067 -0.082700349 1.6550001
0.018861484 -0.079798579 1.6550001
0.023939576 -0.078347698 1.6550001
0.033370316 -0.075445935 1.6550001
0.046428263 -0.071093284 1.6550001
0.050780915 -0.071093284 1.6550001
0.057551708 -0.066257007 1.6550001
0.064875208 -0.064460672 1.655
0.071093284 -0.062387984 1.6550001
0.082700349 -0.062387984 1.6550001
0.075445935 -0.059486218 1.6550001
0.094307423 -0.058518965 1.6550001
0.10417342 -0.054843388 1.6550001
0.11461978 -0.050780911 1.6550001
0.12042332 -0.050780915 1.6550001
0.1268072 -0.046718441 1.6550001
0.13493216 -0.044977382 1.6550001
0.14508833 -0.045702823 1.6550001
0.15524451 -0.047879148 1.6550001
0.16588433 -0.043042868 1.6550001
0.17613724 -0.036272086 1.6550001
0.1834331 -0.032955777 1.655
0.19441836 -0.031919435 1.655
0.20457454 -0.031919431 1.6550001
0.21327984 -0.031919435 1.6550001
0.21908338 -0.027566783 1.6550001
0.22488691 -0.027566783 1.6550001
0.23504309 -0.0261159 1.6550001
0.24577963 -0.026406076 1.6550001
0.25535548 -0.023214133 1.6550001
0.26841342 -0.02176325 1.6550001
0.27421698 -0.02176325 1.6550001
0.25970811 -0.018861484 1.6550001
0.26551166 -0.018861484 1.6550001
0.27421698 -0.018861484 1.6550001
0.28524366 -0.018281132 1.6550001
0.29452932 -0.012332508 1.6550001
0.30178374 -0.01305795 1.6550001
0.32354698 0.0072544166 1.6550001
0.32499784 0.010156184 1.6550001
-0.23214133 0.31774345 1.6550001
-0.22488691 0.31701803 1.6550001
-0.23332843 0.32539356 1.655
-0.22488689 0.32499784 1.6550001
-0.21792269 0.32586837 1.6550001
-0.23317768 0.33432499 1.655
-0.22604761 0.33399335 1.6550001
-0.12537912 -0.14141597 1.6630001
-0.11663173 -0.14141597 1.6630001
-0.15162125 -0.13850018 1.6630001
-0.14433177 -0.13704228 1.6630001
-0.13631333 -0.13777123 1.6630001
-0.12586509 -0.13850018 1.6630001
-0.11444489 -0.13777123 1.6630001
-0.10517682 -0.13600092 1.6630001
-0.094763279 -0.1326686 1.6630001
-0.087473795 -0.1326686 1.6630001
-0.083586074 -0.12878089 1.6630001
-0.074769273 -0.12433776 1.6630001
-0.06560535 -0.12100542 1.6630001
-0.059773762 -0.12100542 1.6630001
-0.062689558 -0.11808963 1.6630001
-0.054428142 -0.1171177 1.6630001
-0.045923743 -0.11298699 1.6630001
-0.042279001 -0.10934225 1.6630001
-0.035197791 -0.106843 1.6630001
-0.024784245 -0.10253873 1.6630001
-0.016036863 -0.10059487 1.6630001
-0.010205276 -0.096221179 1.6630001
-0.0043736901 -0.093305387 1.6630001
0.0029157933 -0.091847487 1.6630001
0.0049568485 -0.087765381 1.6630001
0.014787237 -0.085599355 1.6630001
0.024784245 -0.082128175 1.6630001
0.030615829 -0.080184318 1.6630001
0.036447417 -0.07629659 1.6630001
0.045194793 -0.074352726 1.6630001
0.055400074 -0.072894834 1.6630001
0.064147457 -0.071436934 1.6630001
0.067063242 -0.068521142 1.6630001
0.074352734 -0.06560535 1.6630001
0.083683267 -0.063855872 1.6630001
0.091847487 -0.062689558 1.6630001
0.097679079 -0.059773762 1.6630001
0.10496856 -0.058315866 1.6630001
0.11517384 -0.055400074 1.6630001
0.12537912 -0.053213228 1.6630001
0.1355844 -0.052484278 1.6630001
0.14433177 -0.052484278 1.6630001
0.15356512 -0.051998314 1.6630001
0.16182654 -0.051026382 1.6630001
0.1355844 -0.048110589 1.6630001
0.14433177 -0.048110589 1.6630001
0.16474232 -0.046652697 1.6630001
0.17057391 -0.045194797 1.6630001
0.17640549 -0.039363209 1.6630001
0.18588182 -0.037176363 1.6630001
0.19535814 -0.036447417 1.6630001
0.20556343 -0.036447417 1.6630001
0.21431081 -0.035475489 1.6630001
0.22364135 -0.03119899 1.6630001
0.23763716 -0.030615829 1.6630001
0.24288559 -0.031782147 1.6630001
0.2551319 -0.030615829 1.6630001
0.23326346 -0.027700037 1.6630001
0.25586087 -0.026971089 1.6630001
0.2653372 -0.023812311 1.6630001
0.27554247 -0.024784243 1.6630001
0.2835609 -0.022597399 1.6630001
0.29303724 -0.01749476 1.6630001
0.3047004 -0.016036863 1.6630001
-0.23617926 0.33968991 1.6630001
-0.22597398 0.33677414 1.6630001
-0.23413821 0.34377202 1.6630001
-0.22888978 0.34260571 1.6630001
-0.15235063 -0.14209627 1.6710001
-0.14356118 -0.14209627 1.6710001
-0.13477172 -0.14356118 1.6710001
-0.12451735 -0.14502609 1.6710001
-0.11514193 -0.14502609 1.6710001
-0.10889164 -0.14307289 1.6710001
-0.1025437 -0.13916644 1.6710001
-0.095219143 -0.13770153 1.6710001
-0.084476471 -0.13428342 1.6710001
-0.076175317 -0.1318419 1.6710001
-0.073245496 -0.12744717 1.6710001
-0.065920949 -0.12451735 1.6710001
-0.057131488 -0.12158753 1.6710001
-0.045412213 -0.11670449 1.6710001
-0.038087659 -0.11279807 1.6710001
-0.032228019 -0.10986825 1.6710001
-0.024903469 -0.10596182 1.6710001
-0.0146491 -0.10327616 1.6710001
-0.00585964 -0.10107879 1.6710001
-0.0043947301 -0.098148972 1.6710001
0.0048132758 -0.096056238 1.6710002
0.012451734 -0.09302178 1.6710001
0.01611401 -0.0893595 1.6710001
0.024903469 -0.086429693 1.6710001
0.035157841 -0.081302501 1.6710001
0.042482391 -0.08057005 1.6710001
0.039552569 -0.077640228 1.6710001
0.045412213 -0.077640228 1.6710001
0.054201674 -0.077640228 1.6710001
0.064456038 -0.074710406 1.6710001
0.073245496 -0.071780592 1.6710001
0.077640228 -0.068850771 1.6710001
0.084964775 -0.06738586 1.6710001
0.095219158 -0.063967735 1.6710001
0.10645012 -0.06201452 1.6710001
0.11572789 -0.062154036 1.6710002
0.1237849 -0.060793761 1.6710001
0.1333068 -0.060061309 1.6710001
0.14356118 -0.060061309 1.6710001
0.12598225 -0.057131488 1.6710001
0.13477172 -0.057131488 1.6710001
0.14502609 -0.057131488 1.6710001
0.15625706 -0.056154881 1.6710001
0.16553484 -0.052248459 1.6710001
0.17139447 -0.051271848 1.6710001
0.16846465 -0.04834203 1.6710001
0.17432429 -0.044435605 1.6710001
0.18164885 -0.042482391 1.6710001
0.19483303 -0.042482391 1.6710001
0.20948213 -0.042482391 1.6710001
0.21387686 -0.042482391 1.6710001
0.18897338 -0.039552569 1.6710001
0.19483303 -0.039552569 1.6710001
0.20508741 -0.039552569 1.6710001
0.21607423 -0.038820114 1.6710001
0.22599567 -0.036889102 1.6710002
0.23548427 -0.034059156 1.6710002
0.24463996 -0.036622748 1.6710001
0.25430837 -0.033692934 1.6710002
0.26441625 -0.031495564 1.6710001
0.27393818 -0.03076311 1.6710001
0.28419253 -0.03076311 1.6710001
0.26514873 -0.02783329 1.6710001
0.27540308 -0.02783329 1.6710001
0.28565744 -0.02636838 1.6710001
0.29249367 -0.022950256 1.6710001
0.29737672 -0.017578918 1.6710001
0.30177146 -0.017578918 1.6710001
-0.22413123 0.33839419 1.6710001
-0.23878033 0.34718367 1.6710001
-0.22852597 0.34425384 1.6710001
-0.23487389 0.3535316 1.6710001
-0.22999087 0.35011348 1.6710001
-0.087308988 -0.49277782 1.6880001
-0.074286625 -0.49455363 1.6880001
-0.068564683 -0.49475089 1.6880001
-0.086322449 -0.48439226 1.6880001
-0.077838182 -0.48449087 1.6880001
-0.093228236 -0.47354025 1.6880001
-0.086322449 -0.47699317 1.6880001
-0.078430109 -0.47649989 1.6880001
-0.12282451 -0.46318159 1.6880001
-0.093228236 -0.46910083 1.6880001
-0.14946115 -0.15242077 1.6880001
-0.13466302 -0.15242077 1.6880001
-0.12578411 -0.15242077 1.6880001
-0.11542544 -0.15242077 1.6880001
-0.10506675 -0.15242077 1.6880001
-0.1516984 -0.14727999 1.6800001
-0.14615203 -0.14763184 1.684
-0.13638128 -0.14816368 1.6800001
-0.12518799 -0.14875279 1.6799999
-0.1148784 -0.14875279 1.6800001
-0.10358693 -0.14678906 1.6800002
-0.095322415 -0.14608914 1.6832001
-0.086039566 -0.14340582 1.6864001
-0.076950297 -0.14058226 1.6880001
-0.083949603 -0.1384432 1.6800001
-0.074551731 -0.13656013 1.6840001
-0.06565582 -0.13279346 1.6857144
-0.057712719 -0.13170339 1.6880001
-0.063330397 -0.12813359 1.6799999
-0.054623347 -0.12598167 1.6840001
-0.046376366 -0.1237755 1.6848001
-0.038475148 -0.1228245 1.6880001
-0.042711198 -0.1192968 1.6800001
-0.034303088 -0.11766882 1.6830002
-0.025109136 -0.11521224 1.6847999
-0.015784675 -0.11197254 1.6880001
-0.014743779 -0.10764238 1.6820002
-0.0051635667 -0.1054332 1.6820002
0.0044183997 -0.103096 1.6800002
0.011328871 -0.10293236 1.6853334
0.016823584 -0.097687319 1.6832001
0.024498975 -0.09414418 1.6832001
0.035515517 -0.091008514 1.6880001
0.0279832 -0.0898408 1.6800001
0.036360625 -0.086473234 1.6813335
0.045765504 -0.084645092 1.6840001
0.054623351 -0.082676671 1.6840001
0.06410607 -0.081827365 1.6847999
0.073990665 -0.081389733 1.6880001
0.0677488 -0.078058399 1.6800001
0.075847797 -0.077028848 1.6832001
0.083833009 -0.07496991 1.6850001
0.094708055 -0.072510853 1.6880001
0.10358693 -0.072510853 1.6880001
0.11986488 -0.072510853 1.6880001
0.0898408 -0.069221601 1.6800001
0.09658587 -0.068567604 1.6820002
0.10481777 -0.067913614 1.684
0.11416655 -0.068404548 1.6840001
0.12586428 -0.067258872 1.6834286
0.13526998 -0.066098124 1.682182
0.14595622 -0.066146255 1.6860001
0.1545388 -0.062620051 1.6834288
0.16332826 -0.061340369 1.6860001
0.17017853 -0.060672347 1.6880001
0.16839011 -0.05645733 1.6799999
0.17517483 -0.05524122 1.6848001
0.1782088 -0.047129601 1.6800001
0.18519409 -0.046564527 1.6822859
0.19466908 -0.045198124 1.6847999
0.20541854 -0.044879321 1.6822857
0.21483341 -0.04701839 1.6834285
0.22517569 -0.04604394 1.6831999
0.23454693 -0.045733947 1.6826668
0.24477233 -0.044238351 1.6820002
0.25496799 -0.043603644 1.6860001
0.26488659 -0.042914588 1.6880001
0.23712079 -0.0397656 1.6800001
0.2444848 -0.0397656 1.6800001
0.25479439 -0.0397656 1.6799999
0.26591656 -0.03768865 1.6811429
0.27501151 -0.036902599 1.6835556
0.28533608 -0.035187297 1.6864001
0.29392177 -0.033384871 1.6848001
0.30188191 -0.031076079 1.6880001
0.2967692 -0.027246799 1.6800001
0.3042354 -0.024635836 1.6811429
-0.22049218 0.33887726 1.6880001
-0.24359059 0.34840485 1.684
-0.22340271 0.34558338 1.6832001
-0.10259104 -0.49213964 1.6960001
-0.094264813 -0.49481592 1.6960001
-0.083899505 -0.49553806 1.6960001
-0.075828157 -0.49511328 1.6960001
-0.064263947 -0.49445248 1.6960001
-0.055012587 -0.49511331 1.6960001
-0.044604797 -0.49511328 1.6960001
-0.034197018 -0.49511325 1.6960001
-0.028249705 -0.49511328 1.6960001
-0.10556469 -0.48470554 1.6960001
-0.095156915 -0.48470548 1.6959999
-0.082370192 -0.48559761 1.6960001
-0.074128933 -0.48491788 1.6960001
-0.065420374 -0.48470548 1.6959999
-0.055012584 -0.48470542 1.6960001
-0.044604801 -0.48470548 1.6959999
-0.034197014 -0.48470548 1.6960001
-0.028249705 -0.48321867 1.6960001
-0.12043296 -0.47132406 1.6960001
-0.11389092 -0.47251353 1.6960001
-0.10556469 -0.47429773 1.6960001
-0.096218929 -0.4738729 1.6960001
-0.084377408 -0.47392598 1.6960001
-0.075456455 -0.47392598 1.6960001
-0.065420367 -0.47429773 1.6960001
-0.055437393 -0.47514731 1.6960001
-0.045010302 -0.47456801 1.6960002
-0.033453599 -0.47652793 1.6960001
-0.028249707 -0.47727135 1.6960001
-0.12043295 -0.46537673 1.6960001
-0.11448565 -0.46537673 1.6960001
-0.10556469 -0.46537673 1.6960001
-0.095156901 -0.46537676 1.6960001
-0.084749125 -0.46537673 1.6960001
-0.075828157 -0.46537673 1.6960001
-0.065420367 -0.46537676 1.6960001
-0.055437393 -0.46452713 1.6960001
-0.045010298 -0.46510646 1.6960002
-0.032710187 -0.46537673 1.6960001
-0.028249707 -0.46537673 1.6960001
-0.12191979 -0.45496893 1.6960001
-0.11448565 -0.45496896 1.6960001
-0.10556469 -0.45496902 1.6960001
-0.095156901 -0.45496899 1.6959999
-0.08474911 -0.45496893 1.6960001
-0.075828157 -0.45496893 1.6960001
-0.065420367 -0.45496896 1.6959999
-0.055755999 -0.45645583 1.6960001
-0.045596018 -0.45843825 1.6960001
-0.035188232 -0.4564558 1.6960001
-0.028249707 -0.4564558 1.6960001
-0.12221714 -0.44515592 1.6960001
-0.11448565 -0.44456115 1.6960001
-0.10556468 -0.44456121 1.6960001
-0.095156908 -0.44456112 1.6960001
-0.084749117 -0.44456115 1.6960001
-0.075828157 -0.44456115 1.6960001
-0.065825865 -0.44483149 1.6960002
-0.11448565 -0.43861386 1.6960001
-0.10556469 -0.43712702 1.6960001
-0.094000489 -0.43630102 1.6960001
-0.084749125 -0.43564022 1.6960001
-0.075828157 -0.43564022 1.6960001
-0.066907197 -0.43564025 1.6960001
-0.13530123 -0.42077196 1.6960001
-0.1226632 -0.4237456 1.6960001
-0.11448565 -0.42523241 1.6960001
-0.10556469 -0.42671925 1.6960001
-0.093670078 -0.42671928 1.6960001
-0.084749117 -0.42671925 1.6960001
-0.075828165 -0.42671922 1.6960001
-0.066482387 -0.42756885 1.6960001
-0.055012587 -0.42969289 1.6960001
-0.12340661 -0.41631147 1.6960001
-0.11349443 -0.41581583 1.6960001
-0.069880851 -0.39995638 1.6960001
-0.15165633 -0.15462998 1.6960001
-0.14422219 -0.15433261 1.6960001
-0.13530123 -0.15760362 1.6960001
-0.12553065 -0.15739122 1.6960001
-0.11448565 -0.1561168 1.6960001
-0.10556469 -0.1561168 1.6960001
-0.095156908 -0.15239975 1.6960001
-0.087722771 -0.15016949 1.6960001
-0.083262295 -0.14570901 1.6960001
-0.075828157 -0.14273536 1.6960001
-0.06839402 -0.14124854 1.6960001
-0.064528272 -0.13768014 1.6960001
-0.055012587 -0.13381439 1.6960001
-0.052038934 -0.12935393 1.6960001
-0.044307433 -0.12816447 1.6960001
-0.034197014 -0.12489344 1.6960001
-0.025276052 -0.12390221 1.6960001
-0.018337529 -0.12142418 1.6960001
-0.014868267 -0.11597247 1.6960001
-0.0074341334 -0.111512 1.6960001
-0.0029736534 -0.10853834 1.6960001
0.0044604801 -0.10853835 1.6960001
0.016355094 -0.10358226 1.6960001
0.025276056 -0.098626167 1.6960001
0.034197014 -0.095156908 1.6960001
0.044604797 -0.092183255 1.6960001
0.055012587 -0.090696424 1.6960001
0.049065281 -0.087722771 1.6960001
0.055012587 -0.087722771 1.6960001
0.066057578 -0.086448349 1.6960001
0.075828157 -0.084749117 1.6960001
0.084154382 -0.08296492 1.6960001
0.087722771 -0.078801811 1.6960001
0.094165683 -0.076819375 1.6960001
0.10556469 -0.074341327 1.6960001
0.11508038 -0.074043967 1.6960001
0.12439784 -0.073845722 1.6960001
0.13530123 -0.072854504 1.6960001
0.1442222 -0.072854504 1.6960001
0.15165633 -0.072854504 1.6960001
0.14570901 -0.069880851 1.6960001
0.15671153 -0.068691388 1.6960001
0.16503777 -0.066411592 1.6960001
0.17455345 -0.062744088 1.6960001
0.17990603 -0.055012587 1.6960001
0.18585332 -0.052038934 1.6960001
0.19477428 -0.052038934 1.6960001
0.20815572 -0.052038934 1.6960001
0.21558987 -0.052038934 1.6960001
0.22451083 -0.052038934 1.6960001
0.23491861 -0.052038934 1.6960001
0.2453264 -0.052038934 1.6960001
0.25127369 -0.052038934 1.6960001
0.19477428 -0.049065281 1.6960001
0.20369524 -0.049065281 1.6960001
0.2453264 -0.049065281 1.6960001
0.25499076 -0.048321865 1.6960001
0.26465517 -0.046091627 1.6960001
0.2743195 -0.043861389 1.6960001
0.28457862 -0.040739052 1.6960001
0.29439169 -0.040144321 1.6960001
0.28695753 -0.037170667 1.6960001
0.29686972 -0.036179449 1.6960001
0.30182582 -0.035683841 1.6960001
-0.22153717 0.34791744 1.6960001
-0.21856351 0.34048331 1.6960001
-0.11210375 -0.49325651 1.705
-0.10562664 -0.49674416 1.705
-0.024911946 -0.49475121 1.705
-0.015843997 -0.49534908 1.7050002
-0.11359847 -0.48578295 1.705
-0.023915464 -0.48578289 1.705
-0.014947168 -0.48578295 1.705
-0.11509318 -0.47880757 1.705
-0.053809799 -0.47233048 1.705
-0.040357351 -0.47233045 1.705
-0.035232607 -0.47382519 1.705
-0.025138415 -0.47491229 1.705
-0.016441884 -0.47553343 1.705
-0.034378484 -0.46485689 1.705
-0.025410185 -0.46442983 1.705
-0.019431317 -0.4678463 1.705
-0.053809799 -0.45439386 1.705
-0.044243611 -0.4552907 1.7050002
-0.033780597 -0.45469278 1.7050002
-0.025036504 -0.45551491 1.705
-0.019431317 -0.4558886 1.705
-0.12406149 -0.44333297 1.7050002
-0.11509319 -0.44094142 1.705
-0.061283384 -0.44243613 1.705
-0.05557628 -0.44583318 1.705
-0.045090619 -0.44667116 1.705
-0.03437848 -0.44542554 1.705
-0.026074503 -0.4465881 1.705
-0.019431317 -0.44841498 1.705
-0.12406148 -0.43496254 1.705
-0.11509319 -0.43533623 1.705
-0.1038828 -0.43421519 1.705
-0.095163621 -0.43296957 1.705
-0.061283384 -0.43496251 1.705
-0.055731576 -0.43496251 1.705
-0.045339737 -0.43429819 1.705
-0.034752164 -0.43533623 1.705
-0.13243191 -0.42121118 1.7050002
-0.12465937 -0.42599425 1.7050002
-0.11509319 -0.42449951 1.705
-0.10512841 -0.42499772 1.705
-0.094167151 -0.42390162 1.7050002
-0.085198849 -0.4215101 1.705
-0.0742376 -0.42200834 1.705
-0.063940667 -0.42333695 1.705
-0.056300998 -0.42499778 1.705
-0.046336215 -0.42823634 1.705
-0.03637144 -0.42798722 1.705
-0.131834 -0.41463441 1.7050002
-0.12406149 -0.41254178 1.705
-0.11552025 -0.41318241 1.705
-0.10463017 -0.41403651 1.705
-0.094167151 -0.41403651 1.705
-0.085198849 -0.41403651 1.705
-0.074735835 -0.41403651 1.705
-0.064272813 -0.41403648 1.705
-0.05709818 -0.41463441 1.7050002
-0.12346359 -0.40686187 1.7050002
-0.11466612 -0.40592235 1.705
-0.10463017 -0.40506816 1.705
-0.094167151 -0.40506825 1.705
-0.085198849 -0.40506822 1.705
-0.075143479 -0.40533999 1.705
-0.064272821 -0.40506825 1.705
-0.056799229 -0.40506819 1.705
-0.11509319 -0.39908934 1.705
-0.10359537 -0.39495009 1.705
-0.094167151 -0.39460519 1.705
-0.085198849 -0.39460519 1.705
-0.074735828 -0.39609993 1.705
-0.063845754 -0.39695406 1.705
-0.057098173 -0.39669782 1.7050002
-0.11210375 -0.38414216 1.705
-0.10463016 -0.38414219 1.705
-0.094540827 -0.38451588 1.705
-0.088188283 -0.3871316 1.705
-0.11210375 -0.37816331 1.705
-0.10463016 -0.37816331 1.705
-0.096409224 -0.37592125 1.705
-0.13302977 -0.16292411 1.705
-0.1255562 -0.16292411 1.705
-0.15395582 -0.15694524 1.705
-0.14498751 -0.15918733 1.705
-0.12107205 -0.15993468 1.705
-0.11658789 -0.15993468 1.705
-0.10014602 -0.15694524 1.705
-0.094167151 -0.15594877 1.705
-0.085198849 -0.15096638 1.705
-0.082209416 -0.14797695 1.705
-0.076230548 -0.14598399 1.705
-0.064272813 -0.14299457 1.705
-0.05829395 -0.14199808 1.705
-0.055304516 -0.13801217 1.705
-0.044841498 -0.13228244 1.705
-0.035873201 -0.13004035 1.705
-0.03138905 -0.12705092 1.705
-0.022420749 -0.12705092 1.705
-0.014947167 -0.12256676 1.705
-0.011957733 -0.11808261 1.705
-0.0044841496 -0.11359847 1.705
0.0029894332 -0.11210375 1.705
0.015445407 -0.10712137 1.705
0.025410181 -0.10313545 1.7050002
0.033631124 -0.10089338 1.705
0.037367918 -0.097156584 1.705
0.045738328 -0.096558698 1.7050002
0.054706626 -0.095362917 1.7050002
0.064272813 -0.09267243 1.705
0.073838994 -0.091775596 1.7050002
0.082209416 -0.091177717 1.705
0.077725261 -0.088188283 1.705
0.08594621 -0.08744093 1.705
0.092174195 -0.083205894 1.705
0.097156584 -0.079219982 1.705
0.105527 -0.078024209 1.7050002
0.11359847 -0.077725261 1.705
0.12605445 -0.075234078 1.705
0.13452449 -0.076230548 1.705
0.14598399 -0.075234078 1.705
0.15545052 -0.074735835 1.705
0.16591355 -0.071746394 1.705
0.17488186 -0.067262247 1.705
0.18484662 -0.061283384 1.705
0.19580789 -0.061283384 1.705
0.18598546 -0.057012763 1.705
0.19580787 -0.0556782 1.705
0.20477618 -0.054806277 1.705
0.21459861 -0.056585699 1.705
0.22570221 -0.056799229 1.705
0.23467052 -0.056799233 1.705
0.24423671 -0.055902403 1.7050002
0.25619441 -0.054108739 1.7050002
0.26456484 -0.053809796 1.705
0.27154019 -0.05331156 1.705
0.26456484 -0.049325649 1.705
0.27602431 -0.048329171 1.705
0.28608876 -0.045140442 1.7050002
0.29445919 -0.043346781 1.705
0.30342749 -0.041104708 1.705
0.3074134 -0.035374962 1.705
-0.022525949 -0.49406916 1.7130001
-0.014716955 -0.49527055 1.7130001
-0.11863667 -0.48355705 1.7130001
-0.01051211 -0.48205534 1.7130001
-0.014061654 -0.47495624 1.7130001
-0.022525949 -0.46703804 1.7130001
-0.015517877 -0.46403456 1.7130002
-0.014373702 -0.45502418 1.7130002
-0.13065051 -0.44601381 1.7130001
-0.12764704 -0.44301036 1.7130001
-0.052560549 -0.44150862 1.7130001
-0.044551324 -0.44250977 1.7130002
-0.024528258 -0.44200918 1.7130002
-0.01802076 -0.4445121 1.7130002
-0.13215223 -0.43099651 1.7130001
-0.040546712 -0.43399996 1.7130001
-0.03153633 -0.43249822 1.7130001
-0.026387542 -0.43442902 1.7130002
-0.13365398 -0.42799306 1.7129999
-0.10261822 -0.42398843 1.7129999
-0.052560549 -0.42498958 1.7129999
-0.044915382 -0.42471656 1.7130001
-0.034539789 -0.42549014 1.7130002
-0.027531719 -0.42699191 1.7129999
-0.13605674 -0.41477785 1.7130001
-0.053311415 -0.41522837 1.7130001
-0.045266431 -0.41683736 1.7130002
-0.037543248 -0.41898265 1.7130001
-0.02703114 -0.4144775 1.7130001
-0.14366549 -0.40396535 1.7129999
-0.13515571 -0.4075695 1.7130001
-0.12507264 -0.40310723 1.7130002
-0.11663437 -0.4029642 1.7129999
-0.052560549 -0.40546709 1.7130001
-0.045352243 -0.40396538 1.7130001
