# .PCD v0.7 - Point Cloud Data file format
VERSION 0.7
FIELDS x y z
SIZE 4 4 4
TYPE F F F
COUNT 1 1 1
WIDTH 1479
HEIGHT 1
VIEWPOINT 0 0 0 1 0 0 0
POINTS 1479
DATA ascii
0.085342325 -0.4038426 1.7383336
0.09604498 -0.4039987 1.7390002
0.1051921 -0.40399867 1.7390002
0.11452405 -0.40585318 1.7326002
0.12516151 -0.40471616 1.7368671
0.13518322 -0.40493852 1.7326
0.14416344 -0.40517518 1.7310001
0.15478604 -0.40517521 1.7310003
0.16540858 -0.40517521 1.7310001
0.17451365 -0.40517518 1.7310001
0.18323849 -0.40406731 1.7355716
0.19666351 -0.40269193 1.7390002
0.20581065 -0.40437981 1.7390002
0.21481451 -0.40460435 1.7378572
0.22448605 -0.40437981 1.7390002
0.2347766 -0.4039987 1.7390002
0.24544828 -0.4039987 1.7390002
0.2545954 -0.40399867 1.7390002
0.26526704 -0.4039987 1.7390002
0.27390602 -0.40196598 1.739
-0.15250255 -0.39286304 1.7321428
-0.14416344 -0.39455259 1.7310003
-0.13809341 -0.39455259 1.7310001
-0.0045525297 -0.39455256 1.7310003
0.0045525301 -0.39455256 1.7310003
0.015186497 -0.3947787 1.7320004
0.025916897 -0.39485157 1.7390002
0.035064038 -0.39485157 1.7390002
0.044211179 -0.39485154 1.7390002
0.054882839 -0.39485148 1.7390002
0.065554507 -0.39485157 1.7390002
0.074701644 -0.39485154 1.7390002
0.085373305 -0.39485154 1.7390002
0.09604498 -0.39485154 1.7390002
0.1051921 -0.39485157 1.7390002
0.11403007 -0.39530709 1.7343334
0.12501091 -0.39485154 1.7390002
0.13545559 -0.3952921 1.7360911
0.14416344 -0.39455259 1.7310003
0.15478604 -0.39455253 1.7310004
0.16540858 -0.39455262 1.7310003
0.17451365 -0.39455256 1.7310003
0.18382858 -0.39473194 1.7358001
0.19506241 -0.39470136 1.7383336
0.20486383 -0.3936421 1.7310002
0.21405882 -0.39430255 1.7317275
0.22424129 -0.39350203 1.7310003
0.23557639 -0.39364523 1.7336669
0.24532434 -0.39465126 1.7381114
0.2545954 -0.39485157 1.7390002
0.26526704 -0.39485154 1.7390002
0.27593872 -0.39485157 1.7390002
0.28447607 -0.39302212 1.7390001
-0.15288913 -0.38355064 1.7310001
-0.14416344 -0.38393003 1.7310001
-0.13809341 -0.38393006 1.7310001
-0.0045525301 -0.38393006 1.7310001
0.0045525301 -0.38393003 1.7310001
0.015210751 -0.3846682 1.7343335
0.025916895 -0.3857044 1.7390002
0.035064038 -0.38570437 1.7390002
0.044211179 -0.3857044 1.7390002
0.054882839 -0.3857044 1.7390002
0.065554507 -0.3857044 1.7390002
0.074701637 -0.3857044 1.7390002
0.085373312 -0.38570443 1.7390002
0.09604498 -0.3857044 1.7390002
0.1051921 -0.3857044 1.7390002
0.11478706 -0.38487139 1.7366002
0.12521501 -0.38534018 1.7360909
0.13512772 -0.38412872 1.7318889
0.14416344 -0.38393006 1.7310001
0.15478604 -0.38393006 1.7310003
0.16540857 -0.38393003 1.7310001
0.17451364 -0.38393 1.7310001
0.18418911 -0.38511297 1.7363335
0.19468427 -0.38481835 1.7350001
0.20486385 -0.38393003 1.7310001
0.21474117 -0.38531163 1.7372224
0.22436634 -0.38397929 1.7324548
0.23536095 -0.38547701 1.7366003
0.24507655 -0.38511291 1.7363335
0.2545954 -0.3857044 1.7390002
0.26526707 -0.3857044 1.7390002
0.27555758 -0.38532326 1.7390002
0.2843236 -0.38341764 1.7390001
0.29461414 -0.38532329 1.7390002
0.30185562 -0.38265535 1.7390001
-0.16007495 -0.37350821 1.7390001
-0.15387551 -0.37452143 1.7310002
-0.14598446 -0.37543195 1.7310002
-0.0045525301 -0.37482497 1.7310001
0.0048335413 -0.37403119 1.7324547
0.015242163 -0.37492359 1.7385002
0.025916897 -0.37503275 1.7390002
0.035064038 -0.37503269 1.7390002
0.044211179 -0.37503275 1.7390002
0.054984473 -0.37533766 1.7390002
0.065554507 -0.37503269 1.7390002
0.074701644 -0.37503269 1.7390002
0.085373312 -0.37503275 1.7390002
0.096044965 -0.37503275 1.7390002
0.1051921 -0.37503275 1.7390002
0.11476572 -0.37525019 1.7383848
0.12515967 -0.37426311 1.7368668
0.1350069 -0.3743436 1.7339092
0.14416344 -0.37482494 1.7310001
0.15478604 -0.37482497 1.7310003
0.16558002 -0.37520838 1.7327778
0.17468977 -0.37520838 1.7327778
0.18451689 -0.37497607 1.7368183
0.19513898 -0.37503278 1.7390002
0.20573293 -0.37488723 1.7383336
0.21495779 -0.37503275 1.7390002
0.22449255 -0.37501672 1.7383848
0.23493467 -0.37469921 1.7379336
0.2452624 -0.37474284 1.7376667
0.25459537 -0.37503269 1.7390002
0.26526707 -0.37503275 1.7390002
0.27593872 -0.37503275 1.7390002
0.28508586 -0.37503275 1.7390002
0.29423299 -0.37503275 1.7390002
0.30490467 -0.37604907 1.7390002
0.31252727 -0.37350821 1.7390001
-0.16159947 -0.36436108 1.7390001
-0.1536479 -0.36609927 1.7310001
-0.14719847 -0.36723742 1.7310001
-0.0048595383 -0.36527914 1.7318001
0.0042679636 -0.36480045 1.7382002
0.015245232 -0.36436108 1.7390002
0.025916897 -0.36436108 1.7390002
0.035064038 -0.36436111 1.7390002
0.044211179 -0.36436105 1.7390002
0.054710004 -0.36443904 1.7371541
0.0655545 -0.36474216 1.7390002
0.073939383 -0.36664784 1.7390001
0.085373305 -0.36436108 1.7390002
0.096044973 -0.36436111 1.7390002
0.1051921 -0.36436108 1.7390002
0.11472038 -0.36397994 1.7390002
0.12501091 -0.36436108 1.7390002
0.13585983 -0.36463144 1.7374001
0.14438438 -0.36475757 1.7336668
0.15445265 -0.36509016 1.7321432
0.16548504 -0.36527911 1.7318001
0.17451364 -0.36571991 1.7310001
0.18418913 -0.36481401 1.7363334
0.19513899 -0.36436105 1.7390002
0.20581067 -0.36436108 1.7390002
0.21495779 -0.36436108 1.7390002
0.22460885 -0.3641935 1.7382002
0.23509483 -0.3642087 1.7382729
0.24544828 -0.36436108 1.7390002
0.2545954 -0.36436108 1.7390002
0.26526704 -0.36436108 1.7390002
0.27593872 -0.36436108 1.7390002
0.28508586 -0.36436111 1.7390002
0.29362318 -0.36619049 1.7390001
0.30947822 -0.36741012 1.7390001
0.31252727 -0.36741012 1.7390001
-0.16262372 -0.3541292 1.7336668
-0.15478602 -0.35509735 1.7310004
-0.14719847 -0.35509735 1.7310001
-0.13202336 -0.35054481 1.7310001
-0.12595333 -0.35054481 1.7310001
-0.032879382 -0.35155645 1.7310001
-0.025190666 -0.35175881 1.7310002
-0.013994815 -0.35290539 1.7310001
-0.0042938334 -0.35602048 1.7375455
0.0040653953 -0.3557221 1.7390002
0.017786106 -0.35470578 1.7390002
0.026933245 -0.35623029 1.7390002
0.035064038 -0.355214 1.7390002
0.044211179 -0.35521397 1.7390002
0.053697098 -0.35589153 1.7390002
0.086026669 -0.35652065 1.7390002
0.096044965 -0.35673845 1.7390002
0.10417577 -0.35623029 1.739
0.11586377 -0.35673845 1.7390001
0.12501091 -0.35521391 1.7390002
0.13568258 -0.35521394 1.7390002
0.14482972 -0.35521394 1.7390002
0.15567495 -0.35549745 1.7361431
0.1658925 -0.35572463 1.7360911
0.17451365 -0.35509732 1.7310003
0.18382858 -0.35516727 1.7358001
0.19513899 -0.35521391 1.7390002
0.20581065 -0.35521394 1.7390002
0.2146266 -0.35467234 1.7363335
0.22430095 -0.35456172 1.7358
0.23489715 -0.35476702 1.7368183
0.24544828 -0.35521394 1.7390002
0.2545954 -0.35521394 1.7390002
0.26526707 -0.35521391 1.7390002
0.27593872 -0.35521394 1.7390002
0.28470472 -0.35559505 1.7390002
0.29270846 -0.35826299 1.7390001
-0.16198653 -0.34450501 1.7350001
-0.15443783 -0.34489414 1.7317275
-0.14416344 -0.34447479 1.7310001
-0.13592555 -0.34447479 1.7310001
-0.08346305 -0.34143975 1.7310001
-0.074357994 -0.34143975 1.7310001
-0.066770434 -0.34143975 1.7310001
-0.054630361 -0.34143975 1.7310001
-0.043400787 -0.34265375 1.7310002
-0.034523349 -0.34409541 1.7310001
-0.025797671 -0.34447476 1.7310001
-0.0151751 -0.34447479 1.7310003
-0.0041924394 -0.34644791 1.7390002
0.0040653953 -0.34657499 1.7390002
0.016769756 -0.34728643 1.7390001
0.035064034 -0.34911585 1.7390001
0.041162129 -0.34911585 1.7390001
0.10519211 -0.34911585 1.7390001
0.12501091 -0.3460668 1.7390001
0.13655373 -0.34563127 1.7390002
0.14482972 -0.3460668 1.7390002
0.15397686 -0.34606683 1.7390002
0.1646485 -0.3460668 1.7390002
0.17505133 -0.34553143 1.7363335
0.18141825 -0.3460668 1.739
0.19971256 -0.34911585 1.7390001
0.20703027 -0.3472864 1.7390001
0.21495779 -0.3460668 1.7390002
0.22410491 -0.34606683 1.7390002
0.23477657 -0.34606683 1.7390002
0.24544828 -0.34606683 1.7390002
0.25415984 -0.34519568 1.7390002
0.26526704 -0.3460668 1.7390002
0.27593872 -0.34606683 1.7390002
0.28279907 -0.34682906 1.7390001
-0.16159947 -0.33539516 1.7390002
-0.15386096 -0.3353799 1.7342001
-0.14416343 -0.33536971 1.7310001
-0.1350584 -0.33536971 1.7310001
-0.12898836 -0.33688721 1.7310001
-0.11684827 -0.33840472 1.7310001
-0.10167317 -0.33536971 1.7310001
-0.082856044 -0.33476272 1.7310002
-0.074357986 -0.33536971 1.7310001
-0.065632306 -0.33536971 1.7310001
-0.054630358 -0.33536971 1.7310003
-0.044007789 -0.33536971 1.7310001
-0.034902729 -0.33536971 1.7310001
-0.025797671 -0.33536971 1.7310001
-0.014890767 -0.33466575 1.7336669
-0.0030490467 -0.33996871 1.7390001
0.0015245234 -0.33996871 1.7390001
0.11281472 -0.33691967 1.7390001
0.12602726 -0.33793601 1.7390002
0.13606371 -0.33691967 1.7390002
0.14482972 -0.33539513 1.7390002
0.15397687 -0.33539513 1.7390002
0.16464852 -0.33539507 1.7390002
0.17532019 -0.33539513 1.7390002
0.18141827 -0.33539513 1.7390001
0.20711739 -0.33561292 1.7390002
0.21495779 -0.33539519 1.7390002
0.22410493 -0.33539513 1.7390002
0.23412322 -0.33539513 1.7390002
0.24621053 -0.33768192 1.7390001
0.2545954 -0.33539513 1.7390002
0.26526707 -0.33539516 1.7390002
0.27517647 -0.33691967 1.7390002
0.2826466 -0.33630985 1.7390001
-0.16251418 -0.3265529 1.7390001
-0.15325402 -0.32487521 1.7339092
-0.14416344 -0.32474717 1.7310003
-0.1353343 -0.3248851 1.7310002
-0.12443582 -0.32247087 1.7310001
-0.11554755 -0.32236248 1.7310001
-0.10394944 -0.32322964 1.7310001
-0.094996117 -0.32414013 1.7310002
-0.084980555 -0.32474712 1.7310004
-0.074357986 -0.32474715 1.7310003
-0.065252922 -0.32474712 1.7310003
-0.054630361 -0.3247472 1.7310004
-0.044007789 -0.32474715 1.7310003
-0.034902729 -0.32474715 1.7310003
-0.025797671 -0.32474715 1.7310003
-0.015576005 -0.32484457 1.737154
0.13873163 -0.32472348 1.7390001
0.14543954 -0.32533327 1.7390001
0.15397686 -0.32472345 1.7390002
0.16506429 -0.32472345 1.7390002
0.17488459 -0.32515904 1.7390002
0.18141827 -0.32167441 1.7390001
0.21648231 -0.32624799 1.7390001
0.22372378 -0.32510459 1.7390002
0.23248981 -0.32701027 1.7390001
0.24621053 -0.32243669 1.7390001
0.2545954 -0.32472348 1.7390002
0.26526704 -0.32472345 1.7390002
0.27288967 -0.32472345 1.739
-0.15280814 -0.31538969 1.7355716
-0.14416343 -0.31412458 1.7310001
-0.13505837 -0.31412458 1.7310001
-0.12595333 -0.31412458 1.7310001
-0.11533076 -0.31412455 1.7310003
-0.10470819 -0.31412455 1.7310001
-0.095603123 -0.31412455 1.7310001
-0.084980555 -0.31412455 1.7310003
-0.074357986 -0.31412458 1.7310001
-0.06525293 -0.31412458 1.7310001
-0.054630358 -0.31412458 1.7310003
-0.044007793 -0.31412455 1.7310001
-0.034956496 -0.31460693 1.7336668
-0.02586079 -0.31492957 1.7354445
-0.015245232 -0.31557634 1.7390002
0.1768447 -0.31557631 1.7390002
0.18141825 -0.31557631 1.739
0.22181813 -0.31633857 1.7390001
0.23935015 -0.31557631 1.7390001
0.24595642 -0.31506816 1.7390002
0.2545954 -0.31557631 1.7390002
0.26526704 -0.31557634 1.7390002
0.27288967 -0.31710082 1.7390001
0.30947822 -0.31252727 1.7390001
0.31514072 -0.31470516 1.7390002
0.32319894 -0.31557631 1.7390001
-0.15169007 -0.30719143 1.7390001
-0.14464928 -0.30493346 1.7368183
-0.13526762 -0.30396366 1.7336669
-0.12595332 -0.30501953 1.7310001
-0.11533076 -0.30501947 1.7310003
-0.10470819 -0.30501953 1.7310001
-0.095603131 -0.30501953 1.7310001
-0.084884651 -0.30454794 1.7352668
-0.074426718 -0.30469021 1.7326
-0.065252922 -0.3050195 1.7310001
-0.054630358 -0.30501953 1.7310003
-0.043841541 -0.3046771 1.7353638
-0.035064038 -0.30490467 1.7390002
-0.026221801 -0.30581936 1.7390001
-0.017532019 -0.30719143 1.7390001
0.17684472 -0.30490464 1.7390002
0.18141827 -0.30490464 1.7390001
0.19513899 -0.30338013 1.7390002
0.2088597 -0.30642918 1.739
0.21190874 -0.30795372 1.7390001
0.2225804 -0.30947822 1.7390001
0.23630111 -0.30764881 1.7390001
0.24544825 -0.30490467 1.7390002
0.25431824 -0.30532044 1.7390002
0.26526707 -0.305558 1.7390002
0.2753289 -0.30277032 1.7390001
0.28305316 -0.30134743 1.739
0.31557631 -0.30795369 1.7390002
0.32167441 -0.30795372 1.7390001
-0.15092781 -0.29423299 1.739
-0.14787877 -0.29423299 1.739
-0.13568257 -0.29423296 1.7390002
-0.12624438 -0.2950702 1.7350001
-0.11533076 -0.29591444 1.7310003
-0.10470819 -0.29591444 1.7310001
-0.095603131 -0.29591444 1.7310001
-0.085092083 -0.29480299 1.7334
-0.074434362 -0.29520357 1.7327778
-0.065426514 -0.29518536 1.7356669
-0.05466105 -0.29542139 1.7352669
-0.044525802 -0.29509583 1.7381113
0.16617304 -0.29728204 1.7390001
0.17575575 -0.29510418 1.7390002
0.18141825 -0.29423299 1.739
0.19666351 -0.29728204 1.7390001
0.25230861 -0.29499525 1.7390001
0.26526707 -0.29728204 1.7390001
0.27695507 -0.29524934 1.739
0.28356135 -0.29118395 1.7390001
-0.15296052 -0.28406951 1.7390002
-0.14787877 -0.28203681 1.7390001
-0.13481142 -0.2846503 1.7390002
-0.12459514 -0.28536308 1.7390002
-0.11452294 -0.28624415 1.7346927
-0.1050308 -0.28616503 1.7363337
-0.095715933 -0.28561977 1.7330002
-0.085441157 -0.28551295 1.7342001
-0.074511647 -0.28547287 1.7346364
-0.0655545 -0.28508586 1.7390002
-0.054980151 -0.28545192 1.7383848
-0.047260225 -0.28508586 1.7390001
0.16769756 -0.28203681 1.7390001
0.17633653 -0.28406951 1.7390002
0.18141825 -0.28508589 1.739
0.25408724 -0.28559402 1.7390002
-0.15397686 -0.27898777 1.739
-0.14787877 -0.27898777 1.7390001
-0.13339579 -0.27670097 1.7390001
-0.12261523 -0.27593872 1.7390002
-0.11433925 -0.27593872 1.7390002
-0.1051921 -0.27593872 1.7390002
-0.095949903 -0.27565506 1.7372223
-0.085242391 -0.2755132 1.7363335
-0.074701637 -0.27593872 1.7390002
-0.0655545 -0.27593872 1.7390002
-0.055492651 -0.27593875 1.7390001
0.16820574 -0.27797142 1.739
0.17582834 -0.27644691 1.7390002
0.18141825 -0.27593872 1.739
0.2545954 -0.27746326 1.7390001
-0.13263352 -0.26679158 1.7390001
-0.12196186 -0.26831609 1.7390001
-0.11461644 -0.26568288 1.7390002
-0.10491491 -0.26568285 1.7390002
-0.09604498 -0.26526704 1.7390002
-0.086897828 -0.26465726 1.7390001
-0.074701644 -0.26069349 1.7390001
-0.0655545 -0.26766273 1.7390002
-0.054374665 -0.26882425 1.739
0.1666086 -0.26679158 1.7390002
0.17532018 -0.26679158 1.7390002
0.18141825 -0.26679158 1.739
0.31557631 -0.26831609 1.7390001
-0.11738829 -0.25764444 1.7390001
-0.10214306 -0.25764444 1.7390001
-0.097569495 -0.25764444 1.7390001
0.30645436 -0.25392321 1.7370002
0.31156877 -0.25381926 1.7336668
0.30846187 -0.24748094 1.739
-0.18463039 -0.12392998 1.7310001
-0.17532018 -0.12196187 1.7390001
-0.16434363 -0.12226677 1.7390001
-0.15397686 -0.12043735 1.739
-0.18058369 -0.11988329 1.7310001
-0.1724903 -0.11785994 1.7310001
-0.16434185 -0.11817028 1.7326
-0.15423684 -0.11519112 1.7321428
-0.14410861 -0.11498698 1.7355715
-0.13582964 -0.11376613 1.7360002
-0.12805995 -0.1112902 1.7390001
-0.11738829 -0.1112902 1.7390001
-0.13354087 -0.10774321 1.7310001
-0.12437934 -0.10615119 1.7332858
-0.11515471 -0.10465606 1.7346364
-0.10580192 -0.10336268 1.7390001
-0.11229574 -0.098638147 1.7310001
-0.10434175 -0.0965354 1.7321428
-0.097925715 -0.093869664 1.7363335
-0.095745735 -0.089671016 1.7336668
-0.085323729 -0.085665621 1.7345557
-0.075105265 -0.081796333 1.7342001
-0.064029977 -0.07775069 1.7390001
-0.054760106 -0.074533321 1.7350001
-0.043560691 -0.072806284 1.7374003
-0.035064038 -0.071652599 1.739
-0.044007789 -0.068287946 1.7310001
-0.034561928 -0.065711208 1.733
-0.025877154 -0.065458648 1.7363334
-0.015885575 -0.063771106 1.7378575
-0.022762651 -0.05918289 1.7310001
-0.0151751 -0.05918289 1.7310001
-0.0045618811 -0.053705182 1.7336668
0.0045688944 -0.051756646 1.7363334
0.014228884 -0.051325619 1.7390002
0.025916897 -0.050309271 1.739
0.035064038 -0.050309271 1.739
0.0075875497 -0.047042809 1.7310001
0.016186774 -0.046031132 1.7310001
0.025819877 -0.045561537 1.7323333
0.035342596 -0.044468697 1.7340001
0.044143382 -0.044148058 1.7363335
0.054882839 -0.044211179 1.7390002
0.0655545 -0.044211179 1.7390002
0.073939383 -0.041924391 1.7390001
0.045525298 -0.037937749 1.7310001
0.054630361 -0.037937749 1.7310001
0.065859929 -0.03672374 1.7310002
0.074529812 -0.036507908 1.7350001
0.08493109 -0.035409443 1.7344286
0.095824055 -0.033465873 1.7350001
0.1051138 -0.033514965 1.737667
0.11489365 -0.034744404 1.7382002
0.12483627 -0.035019852 1.7366002
0.13537048 -0.033465873 1.7350001
0.14482972 -0.03277725 1.7390001
0.15397686 -0.032014988 1.739
0.16464852 -0.032014988 1.7390001
0.17532019 -0.033539515 1.7390002
0.1928522 -0.03277725 1.7390001
0.10546695 -0.028073935 1.7310001
0.11442025 -0.028225685 1.7310002
0.12595333 -0.028832689 1.7310001
0.13505839 -0.028832689 1.7310001
0.14459702 -0.026231244 1.7310001
0.1545679 -0.025556827 1.7331821
0.1653367 -0.026188839 1.7366002
0.17505133 -0.025881834 1.7363334
0.18317278 -0.024863144 1.7363334
0.19513899 -0.025916899 1.7390002
0.20581065 -0.022867849 1.739
0.21343327 -0.022867849 1.7390001
0.16692609 -0.019727631 1.7310001
0.17299613 -0.019727631 1.7310001
0.18603103 -0.017585808 1.7332858
0.19602317 -0.017424723 1.7363334
0.2052217 -0.016142413 1.7366002
0.21440685 -0.016731571 1.7345557
0.22003895 -0.0151751 1.7310001
0.038310334 -0.49496952 1.748
0.046483204 -0.49701273 1.748
0.054510135 -0.49672082 1.748
0.064361356 -0.49650192 1.748
0.075088255 -0.49190468 1.748
0.065893769 -0.48577502 1.748
0.075088255 -0.48679662 1.748
0.08734756 -0.48271018 1.748
0.091944799 -0.48271018 1.748
0.085815147 -0.47964537 1.748
0.090412386 -0.47964537 1.748
0.12473844 -0.47228974 1.7479999
0.13178754 -0.47351572 1.748
0.18480904 -0.45451379 1.7479999
0.18695444 -0.44593227 1.748
0.1946165 -0.44439986 1.748
0.20600013 -0.44418097 1.748
0.21300545 -0.44286746 1.748
0.18695444 -0.43980262 1.748
0.19563811 -0.4377594 1.748
0.2048326 -0.4377594 1.748
0.21650811 -0.43761346 1.748
0.22526476 -0.43520537 1.748
0.23139441 -0.43060815 1.748
0.22832958 -0.4244785 1.748
0.23445924 -0.4244785 1.748
0.24365373 -0.42263961 1.7479999
0.25284821 -0.42141366 1.748
0.18746524 -0.41324079 1.748
0.1946165 -0.41375163 1.748
0.23445924 -0.41834888 1.748
0.24212131 -0.41681641 1.748
0.26408589 -0.41528401 1.748
0.18848684 -0.40762195 1.748
0.19400354 -0.40792847 1.7479999
0.28502887 -0.3907654 1.748
0.29269093 -0.3907654 1.748
0.28809369 -0.38770056 1.748
0.30648267 -0.37390885 1.748
0.31618798 -0.37339807 1.748
0.012259306 -0.36011714 1.748
0.065893769 -0.36088336 1.748
0.075471357 -0.36279887 1.748
0.081217907 -0.36011714 1.748
0.10880134 -0.36011714 1.748
0.11186618 -0.36471438 1.748
0.29698169 -0.36318198 1.7479999
0.30495024 -0.36471438 1.7479998
0.31414473 -0.36318192 1.748
0.32027438 -0.36164954 1.748
0.0053634467 -0.3547537 1.748
0.013280914 -0.3544983 1.748
0.025029419 -0.35296586 1.748
0.035245508 -0.35092264 1.748
0.059764121 -0.3570523 1.748
0.065893769 -0.3570523 1.748
0.075088255 -0.3570523 1.748
0.085815147 -0.35398749 1.748
0.095009625 -0.35245505 1.748
0.10573651 -0.35442528 1.748
0.11449318 -0.35311177 1.748
0.12412548 -0.35092264 1.748
0.13178754 -0.35092264 1.748
0.18695444 -0.35092264 1.748
0.1946165 -0.35092267 1.748
0.25744545 -0.35092264 1.748
0.28962612 -0.35245508 1.748
0.29575574 -0.35398746 1.748
0.30418405 -0.35628608 1.748
0.31414473 -0.35551989 1.748
0.32180679 -0.3570523 1.748
-0.16703305 -0.34326059 1.748
-0.0076620667 -0.34326059 1.748
0.0061296532 -0.34326059 1.748
0.014813329 -0.34377143 1.748
0.026051028 -0.34479305 1.748
0.034862403 -0.3451761 1.748
0.04137516 -0.34785783 1.748
0.095427558 -0.34507161 1.7479999
0.10573652 -0.34479299 1.748
0.114931 -0.34479299 1.748
0.12324982 -0.34523082 1.748
0.13127674 -0.34683621 1.748
0.18695442 -0.34479299 1.748
0.1946165 -0.34479302 1.748
0.20381097 -0.34479302 1.748
0.24365371 -0.34172818 1.748
0.28840017 -0.34540597 1.7479999
0.29575574 -0.34479305 1.748
0.30495024 -0.34479299 1.748
0.31376162 -0.34440994 1.748
-0.17009787 -0.33559856 1.748
-0.16703303 -0.3355985 1.748
-0.0045972397 -0.3355985 1.748
0.0045972401 -0.33559853 1.748
0.014472793 -0.33593905 1.748
0.026051028 -0.33559853 1.748
0.033713095 -0.33559856 1.748
0.04137516 -0.33406609 1.748
0.095520429 -0.33764172 1.748
0.10611962 -0.33598161 1.748
0.11536883 -0.33472285 1.748
0.12412548 -0.33406612 1.748
0.13383077 -0.33406612 1.748
0.18695444 -0.3355985 1.748
0.1946165 -0.33559853 1.748
0.20278937 -0.33457693 1.748
0.24584286 -0.33384719 1.748
0.27736682 -0.33406609 1.748
0.28617817 -0.33521539 1.748
0.29575577 -0.33559853 1.748
0.30495027 -0.3355985 1.748
0.31414476 -0.3355985 1.748
0.32272625 -0.33498555 1.7479999
-0.17009787 -0.32487163 1.748
-0.16440605 -0.32246354 1.748
-0.0045972397 -0.32487163 1.7479998
0.0045972397 -0.32487166 1.7479998
0.010726893 -0.32487163 1.748
0.036267117 -0.32742563 1.748
0.04137516 -0.32640406 1.748
0.10777974 -0.32385001 1.748
0.11493099 -0.32473233 1.7479999
0.12412548 -0.32487166 1.7479998
0.13419563 -0.3246527 1.7479998
0.14514144 -0.32333922 1.748
0.15477373 -0.32027438 1.748
0.16320202 -0.32180679 1.748
0.17469512 -0.32257301 1.748
0.18603498 -0.32548457 1.7479999
0.1946165 -0.32487163 1.7479998
0.20534338 -0.32487166 1.7479997
0.21530406 -0.32333922 1.748
0.22832958 -0.32180679 1.748
0.23484235 -0.32295612 1.748
0.24393235 -0.32556817 1.7479999
0.27736682 -0.32487163 1.748
0.28502887 -0.32487166 1.7479997
0.29575577 -0.32487163 1.7479998
0.30495024 -0.32487163 1.7479998
0.31414473 -0.32528958 1.7479999
0.32272625 -0.32487166 1.7479999
-0.17009787 -0.31720957 1.748
-0.16358511 -0.31414479 1.748
-0.15783857 -0.31414473 1.748
-0.015324133 -0.31107992 1.748
-0.0041594072 -0.31502038 1.748
0.0045972401 -0.31414473 1.748
0.0114931 -0.31491095 1.748
0.10675812 -0.31465554 1.748
0.114931 -0.31414473 1.748
0.12374238 -0.31376165 1.748
0.1352703 -0.31386614 1.7479999
0.14557926 -0.31414476 1.748
0.15477374 -0.31414473 1.748
0.16396824 -0.31414473 1.748
0.17163028 -0.31414473 1.748
0.18695442 -0.31414476 1.748
0.1946165 -0.31414476 1.748
0.20492548 -0.31442335 1.7479999
0.21645337 -0.31452784 1.748
0.22710364 -0.3147577 1.7479999
0.23489706 -0.31502038 1.748
0.24365371 -0.31414473 1.748
0.27614087 -0.31353179 1.7479999
0.2850289 -0.31414476 1.7479998
0.29575577 -0.31414476 1.748
0.30495024 -0.31414473 1.748
0.31107992 -0.31414473 1.748
-0.16396822 -0.30495027 1.748
-0.15564941 -0.30451241 1.748
-0.14557926 -0.30188543 1.748
-0.024518613 -0.30188543 1.748
-0.014404686 -0.30464375 1.7479999
-0.0015324133 -0.30648267 1.748
0.10726893 -0.30648267 1.748
0.11405534 -0.30538806 1.748
0.12412548 -0.30495024 1.748
0.13638479 -0.30495024 1.748
0.14557928 -0.30495024 1.748
0.15477374 -0.30495027 1.748
0.16396822 -0.30495024 1.748
0.17163031 -0.30495027 1.748
0.18695442 -0.30495027 1.748
0.19155167 -0.30495027 1.748
0.20442395 -0.30464375 1.7479999
0.21645337 -0.30456713 1.748
0.22526476 -0.30495024 1.748
0.23445924 -0.30495024 1.748
0.24058889 -0.30188543 1.748
0.25897786 -0.30188543 1.748
0.26663992 -0.30188543 1.748
0.27736682 -0.30495027 1.748
0.28656128 -0.30626374 1.748
0.29575574 -0.30495024 1.748
0.30495024 -0.30495024 1.748
0.3137069 -0.30407456 1.748
0.32129598 -0.30392864 1.748
-0.16358513 -0.29537266 1.748
-0.15630615 -0.29575577 1.748
-0.14404686 -0.29575577 1.748
-0.044439986 -0.29269093 1.748
-0.035245512 -0.29575574 1.748
-0.026051028 -0.29575577 1.748
-0.015324134 -0.29575577 1.7479998
0.12412548 -0.29882059 1.748
0.13638479 -0.29759467 1.7479999
0.14596236 -0.29613885 1.748
0.15477374 -0.29575577 1.748
0.16358513 -0.29537264 1.748
0.17193677 -0.29452983 1.7479999
0.18695444 -0.29575577 1.748
0.19423339 -0.29537266 1.748
0.20534338 -0.2957558 1.7479998
0.21607028 -0.29575577 1.748
0.22526476 -0.29575574 1.748
0.23445924 -0.29575574 1.748
0.24518615 -0.29575577 1.7479998
0.25775194 -0.2951428 1.7479999
0.26510748 -0.29422334 1.748
0.27473983 -0.29488012 1.748
0.28617817 -0.29652199 1.748
0.29575577 -0.29575577 1.748
0.30495024 -0.29575574 1.748
0.31452787 -0.29575577 1.748
0.32027438 -0.29575577 1.748
-0.16396822 -0.28502887 1.7479998
-0.15681696 -0.2886045 1.748
-0.14496629 -0.28564185 1.7479999
-0.13577183 -0.28410941 1.7479999
-0.12719031 -0.28043163 1.748
-0.04382702 -0.28472242 1.7479999
-0.035245508 -0.28502885 1.7479998
-0.026051028 -0.28502885 1.7479998
-0.015630618 -0.28533536 1.7479997
0.14711168 -0.28502887 1.748
0.15477376 -0.28502885 1.7479998
0.16335526 -0.28564185 1.7479999
0.17254974 -0.28840017 1.7479999
0.18695444 -0.28502887 1.748
0.1946165 -0.2850289 1.7479998
0.20534338 -0.28502887 1.7479997
0.21607029 -0.28502885 1.7479998
0.22526477 -0.28502887 1.7479998
0.23445922 -0.2850289 1.7479998
0.24518614 -0.28502887 1.7479997
0.25652599 -0.28349644 1.7479999
0.26510751 -0.28502885 1.7479998
0.27430198 -0.28502887 1.7479998
0.2850289 -0.28502887 1.7479997
0.29575577 -0.28502885 1.7479998
0.30460969 -0.28588021 1.748
0.31452787 -0.28617817 1.748
-0.16090339 -0.27430198 1.748
-0.15477376 -0.27430198 1.748
-0.14557926 -0.27430201 1.748
-0.13515887 -0.27399552 1.7479999
-0.12719031 -0.27276957 1.748
-0.081217907 -0.27123716 1.748
-0.075088255 -0.27123716 1.748
-0.054400671 -0.27430201 1.748
-0.044439986 -0.27430201 1.748
-0.035245504 -0.27430201 1.748
-0.026051028 -0.27430201 1.748
-0.018388962 -0.27430201 1.748
0.13944961 -0.27123716 1.748
0.14741817 -0.27430198 1.7479999
0.15477374 -0.27430201 1.748
0.16358513 -0.27468508 1.748
0.17392892 -0.27583441 1.748
0.18664795 -0.27368903 1.7479999
0.19499961 -0.2739189 1.748
0.20534341 -0.27430201 1.7479998
0.21607028 -0.27430198 1.748
0.22526476 -0.27430201 1.748
0.23445924 -0.27430201 1.748
0.24518614 -0.27430201 1.7479998
0.25591305 -0.2739189 1.748
0.26510751 -0.27430201 1.748
0.27386418 -0.27517766 1.748
0.28502885 -0.27430201 1.7479998
0.29575574 -0.27430198 1.748
0.30495024 -0.27430198 1.748
0.31376162 -0.27468508 1.748
-0.16090339 -0.26510751 1.748
-0.15477374 -0.26510751 1.748
-0.14557926 -0.26510748 1.748
-0.13499166 -0.26482889 1.7479999
-0.12456331 -0.26423183 1.748
-0.11186618 -0.26204267 1.748
-0.10880134 -0.26204267 1.748
-0.083669767 -0.26694638 1.7479999
-0.075088255 -0.26598316 1.748
-0.065893777 -0.26326859 1.7479999
-0.055027571 -0.26482892 1.7479999
-0.045972399 -0.26510751 1.748
-0.035245512 -0.26510748 1.748
-0.027072636 -0.26612911 1.748
0.13822368 -0.26449454 1.7479999
0.14557928 -0.26510751 1.748
0.15477374 -0.26510748 1.748
0.16345741 -0.26408589 1.748
0.17469512 -0.26204267 1.748
0.18603498 -0.26572046 1.7479999
0.19549215 -0.26510748 1.748
0.20534338 -0.26510751 1.7479998
0.21607028 -0.26510748 1.748
0.22526476 -0.26510751 1.748
0.23445924 -0.26510748 1.748
0.24518614 -0.26510751 1.7479998
0.25591302 -0.26510748 1.748
0.26510751 -0.26510748 1.748
0.27430198 -0.26510748 1.748
0.28502885 -0.26510748 1.7479998
0.29575574 -0.26510751 1.748
0.30495024 -0.26510751 1.748
0.31326908 -0.26466969 1.748
-0.16090339 -0.25897786 1.748
-0.15389809 -0.25635085 1.748
-0.14557926 -0.25591305 1.748
-0.13485236 -0.25591302 1.7479998
-0.12374238 -0.25629613 1.748
-0.1145479 -0.25552991 1.748
-0.10611961 -0.25552991 1.748
-0.094396666 -0.25530007 1.7479999
-0.084282734 -0.25591302 1.748
-0.075088255 -0.25591305 1.748
-0.066276878 -0.25629613 1.748
-0.054553915 -0.25652599 1.7479999
-0.038310334 -0.25744545 1.748
0.138428 -0.25795627 1.748
0.14557926 -0.25591302 1.748
0.15477374 -0.25591302 1.748
0.16396824 -0.25591302 1.748
0.17483443 -0.25619164 1.7479999
0.18235719 -0.25591302 1.748
0.19614892 -0.25591302 1.748
0.20534341 -0.25591302 1.7479998
0.21607026 -0.25591302 1.748
0.22526476 -0.25591302 1.748
0.23445924 -0.25591305 1.748
0.24518615 -0.25591302 1.7479998
0.25552991 -0.25629613 1.748
0.26549062 -0.25629613 1.748
0.27468511 -0.25629613 1.748
0.28502887 -0.25591302 1.7479998
0.29575577 -0.25591305 1.748
0.30265164 -0.25667924 1.748
-0.15273052 -0.24876177 1.748
-0.14634547 -0.24901718 1.748
-0.13331996 -0.24978335 1.748
-0.12259307 -0.24978337 1.748
-0.114931 -0.24901715 1.748
-0.10573652 -0.24825096 1.748
-0.094396658 -0.24733153 1.7479999
-0.084282726 -0.24671854 1.748
-0.075088255 -0.24825096 1.748
0.14711168 -0.24978337 1.748
0.15681696 -0.24876177 1.748
0.16396821 -0.24901718 1.748
0.17775995 -0.24978337 1.748
0.18235719 -0.24978337 1.748
0.19706836 -0.24426667 1.7479999
0.20564987 -0.24528827 1.7479997
0.21607028 -0.24518615 1.7479998
0.22526474 -0.24518615 1.7479998
0.23445922 -0.24518611 1.7479998
0.24518614 -0.24518612 1.7479997
0.2556344 -0.24476819 1.7479999
0.26510751 -0.24518614 1.7479998
0.27430201 -0.24518616 1.7479998
0.28472236 -0.24549262 1.7479997
0.2960344 -0.24560405 1.7479999
0.30467162 -0.2447682 1.7479999
0.19768132 -0.23292682 1.748
0.20626286 -0.23415275 1.7479999
0.21607028 -0.23445924 1.748
0.22322154 -0.23548084 1.748
0.23497003 -0.23548086 1.748
0.24518611 -0.23445921 1.7479998
0.25591302 -0.23445927 1.748
0.2647244 -0.23484235 1.748
0.27430198 -0.23752408 1.748
0.28145325 -0.23650245 1.748
0.29779899 -0.23650245 1.748
0.30495024 -0.23599166 1.748
0.19614892 -0.22526477 1.748
0.20534337 -0.22526477 1.7479998
0.21607026 -0.22526473 1.748
0.22526474 -0.22564785 1.748
0.23489706 -0.22614042 1.748
0.24518614 -0.22526477 1.7479998
0.25591302 -0.22526476 1.748
0.26423183 -0.22526474 1.748
0.15783857 -0.21300545 1.748
0.16320202 -0.21377164 1.748
0.17163029 -0.21300545 1.748
0.18235719 -0.21300545 1.748
0.19614892 -0.21607029 1.748
0.20534338 -0.21607028 1.7479998
0.21568719 -0.21645337 1.748
0.22219993 -0.21913511 1.748
0.23752406 -0.21300545 1.748
0.24518614 -0.21607028 1.7479998
0.25591302 -0.21607028 1.748
0.26280889 -0.21683648 1.748
0.15783857 -0.20994063 1.748
0.16473442 -0.2068758 1.748
0.17513295 -0.20600012 1.7479998
0.18235719 -0.20585419 1.748
0.1946165 -0.20994063 1.748
0.2068758 -0.20721635 1.748
0.21423137 -0.20748878 1.7479999
0.22219993 -0.20840821 1.748
0.2458429 -0.20862713 1.748
0.25560653 -0.20626286 1.7479999
0.26204267 -0.20840821 1.748
0.16703305 -0.19768132 1.748
0.17929237 -0.19768132 1.748
-0.18235719 -0.12412548 1.748
-0.17622754 -0.12565789 1.748
-0.16294661 -0.12616868 1.748
-0.14251444 -0.12106065 1.748
-0.13638479 -0.12106065 1.748
-0.13127674 -0.11697421 1.748
-0.12351252 -0.11370506 1.7479999
-0.11431804 -0.11370508 1.7479999
-0.10573652 -0.11186618 1.748
-0.10573652 -0.10777973 1.748
-0.099606864 -0.10267169 1.748
-0.093988009 -0.096031226 1.748
-0.0848957 -0.092864245 1.7479999
-0.076620668 -0.090412386 1.748
-0.081217907 -0.08734756 1.748
-0.074322045 -0.086581357 1.748
-0.06665998 -0.08198411 1.748
-0.058231708 -0.081217907 1.748
-0.055166878 -0.078153081 1.748
-0.044439986 -0.077131473 1.748
-0.035245508 -0.075088255 1.748
-0.026817232 -0.072789639 1.748
-0.019921374 -0.072023429 1.748
-0.014404686 -0.068345636 1.7479999
-0.0076620667 -0.062828943 1.748
-0.0045972401 -0.058742512 1.748
0.0045972397 -0.056699295 1.748
0.015834937 -0.054656073 1.748
0.026051024 -0.053634465 1.748
0.032180678 -0.053634465 1.748
0.044439986 -0.050569639 1.748
0.055166878 -0.050569639 1.748
0.064361356 -0.050569639 1.748
0.075088255 -0.045461595 1.748
0.08275032 -0.04137516 1.748
0.090412386 -0.04137516 1.748
0.10880134 -0.04137516 1.748
0.11493101 -0.04137516 1.748
0.12412548 -0.04137516 1.748
0.17367351 -0.042396769 1.748
0.08734756 -0.038310334 1.748
0.095009625 -0.038310334 1.748
0.10573652 -0.038310334 1.748
0.13485236 -0.038310334 1.748
0.14251444 -0.036777921 1.748
0.15477374 -0.035245508 1.748
0.16396822 -0.035245508 1.748
0.17377567 -0.037697367 1.7479999
0.185422 -0.033713095 1.748
0.20381097 -0.032180678 1.748
0.18746524 -0.028094245 1.748
0.20626283 -0.027276957 1.7479999
0.21300545 -0.026051026 1.748
0.075474866 -0.49135676 1.7570001
0.077015169 -0.48827615 1.7570001
0.095498808 -0.48827615 1.7570001
0.18791701 -0.4605507 1.7570001
0.18637671 -0.45592979 1.7570001
0.19473836 -0.45394942 1.7570001
0.20640065 -0.45284918 1.7570001
0.20177974 -0.44822827 1.7570001
0.046209101 -0.35272947 1.7570001
0.053910617 -0.35375634 1.7570001
0.065352872 -0.35448983 1.7570001
0.075474866 -0.35426977 1.7570001
0.083946534 -0.35349962 1.7570001
0.30729052 -0.35426977 1.7570001
0.31576219 -0.35272947 1.7570001
0.3219234 -0.35426977 1.7570001
0.038507584 -0.34194735 1.7570001
0.044976857 -0.34471995 1.7570002
0.052883748 -0.34605482 1.7570001
0.065000802 -0.34492528 1.7570001
0.075474866 -0.34502801 1.7570001
0.084716685 -0.34502801 1.7570001
0.090877898 -0.34348765 1.7570001
0.3188428 -0.34964886 1.7570001
0.32384878 -0.34425783 1.7570001
-0.17405428 -0.33424583 1.7570001
0.016173186 -0.33347568 1.7570001
0.02372067 -0.33239746 1.7570002
0.036967281 -0.33347568 1.7570001
0.046209101 -0.33424583 1.7570001
0.053910617 -0.33463094 1.7570001
0.064076617 -0.33486199 1.7570002
0.075474866 -0.33424586 1.7570001
0.085156776 -0.33512601 1.7570001
0.093958504 -0.33386078 1.7570001
0.10258421 -0.33239746 1.7570002
-0.17528652 -0.32562011 1.7570002
0.015403033 -0.32500401 1.7570001
0.024644854 -0.32500404 1.7570001
0.034986891 -0.32412383 1.7570001
0.045548972 -0.32456392 1.7570001
0.053910617 -0.32500401 1.7570001
0.06315244 -0.32423386 1.7570001
0.075914957 -0.32456392 1.7570001
0.093958504 -0.32500401 1.7570001
0.10232015 -0.32544407 1.7570001
0.11552275 -0.32808462 1.7570001
-0.17282203 -0.31514606 1.7570002
-0.16789307 -0.31576219 1.7570001
-0.0061612134 -0.31268159 1.7570001
0.015711095 -0.31514606 1.7570002
0.024644854 -0.31576222 1.7570001
0.034986891 -0.31664234 1.7570001
0.045053873 -0.31614727 1.7570001
0.053910617 -0.31576219 1.7570001
0.064272657 -0.31548217 1.7570001
0.074447997 -0.31370845 1.7570001
0.093958504 -0.31576219 1.7570001
0.10217346 -0.31524876 1.7570001
0.11552275 -0.31576219 1.7570001
0.12784518 -0.3188428 1.7570001
0.13092579 -0.3188428 1.7570001
-0.17158979 -0.30590424 1.7570002
-0.16525255 -0.30564019 1.7570001
-0.0052370313 -0.30436397 1.7570002
0.0046209102 -0.3049801 1.7570001
0.013477654 -0.30690545 1.7570001
0.020023944 -0.30960098 1.7570001
0.047749404 -0.30498007 1.7570001
0.053910617 -0.3049801 1.7570001
0.064574257 -0.3058095 1.7570001
0.073934563 -0.30652037 1.7570001
0.087797292 -0.30652037 1.7570001
0.09434358 -0.30690545 1.7570001
0.1040405 -0.30427995 1.7570001
0.11675499 -0.30220753 1.7570002
0.12476458 -0.30343977 1.7570001
0.13092579 -0.30498007 1.7570001
-0.18124236 -0.29214421 1.7570001
-0.17317411 -0.29375786 1.7570001
-0.005005986 -0.29458302 1.7570001
0.0025671723 -0.29625168 1.7570001
0.053910617 -0.29727855 1.7570001
0.06007183 -0.29727855 1.7570001
0.10504869 -0.29481405 1.7570002
0.11513767 -0.29458302 1.7570001
0.12437949 -0.29458302 1.7570001
0.1340064 -0.29381287 1.7570001
0.14170791 -0.29265764 1.7570001
0.31268159 -0.29727855 1.7570001
-0.18373619 -0.28583628 1.7570001
-0.1736692 -0.2853412 1.7570001
-0.010782124 -0.28187552 1.7570001
-0.0046209102 -0.28649643 1.7570001
0.10443257 -0.28495613 1.7570002
0.11552275 -0.28803673 1.7570001
0.1237377 -0.285983 1.7570001
0.1340064 -0.28495613 1.7570001
0.14170791 -0.28495613 1.7570001
0.30754724 -0.28392926 1.7570001
0.31499204 -0.28418598 1.7570001
-0.1832961 -0.27725461 1.7570001
-0.17317411 -0.27571431 1.7570001
-0.16635276 -0.27571431 1.7570001
-0.012322427 -0.27571431 1.7570001
0.093958504 -0.274174 1.7570001
0.10474063 -0.2750982 1.7570002
0.11500932 -0.27571431 1.7570001
0.12322427 -0.27571431 1.7570001
0.1340064 -0.27571431 1.7570001
0.14273478 -0.27622774 1.7570001
0.18945731 -0.27879491 1.7570001
0.19253792 -0.27879491 1.7570001
0.27725461 -0.2726337 1.7570001
-0.17229393 -0.26559231 1.7570001
-0.16635276 -0.26493219 1.7570001
-0.043898646 -0.26416203 1.7570001
-0.033886675 -0.26031128 1.7570001
-0.02310455 -0.26339191 1.7570002
-0.01386273 -0.26493222 1.7570001
0.046209101 -0.26647249 1.7570001
0.05083001 -0.26647249 1.7570001
0.095498808 -0.26801279 1.7570001
0.10540076 -0.26537231 1.7570001
0.11580281 -0.26535228 1.7570001
0.12476457 -0.26493222 1.7570001
0.13297953 -0.26544562 1.7570001
0.18791701 -0.26185158 1.7570001
0.19253792 -0.26441875 1.7570001
-0.17097367 -0.25723067 1.7570001
-0.16442738 -0.25453514 1.7570001
-0.15865125 -0.25415006 1.7570001
-0.14016761 -0.25106946 1.7570001
-0.12784518 -0.25260976 1.7570001
-0.063665874 -0.25209633 1.7570001
-0.054680768 -0.25183961 1.7570001
-0.044668797 -0.25415006 1.7570001
-0.035041902 -0.25376499 1.7570001
-0.024644854 -0.25415009 1.7570001
-0.01386273 -0.25415006 1.7570001
0.1073078 -0.2562038 1.7570001
0.12599681 -0.2553823 1.7570002
0.13439147 -0.25453514 1.7570001
0.14119448 -0.25209633 1.7570001
0.15249003 -0.25106946 1.7570001
0.17302741 -0.25209633 1.7570001
0.18791701 -0.25415006 1.7570001
0.19330807 -0.25337991 1.7570001
0.26133814 -0.25312319 1.7570001
0.2726337 -0.25415006 1.7570001
-0.16275872 -0.24696197 1.7570001
-0.15557064 -0.24542166 1.7570001
-0.14436843 -0.24462819 1.7570001
-0.1340064 -0.24490823 1.7570001
-0.12476458 -0.24490823 1.7570001
-0.11552275 -0.24452315 1.7570001
-0.10474063 -0.24336793 1.7570001
-0.094728656 -0.24259777 1.7570001
-0.084716685 -0.24182762 1.7570001
-0.075474866 -0.24336793 1.7570001
-0.064692743 -0.24490826 1.7570001
-0.053910617 -0.24490823 1.7570001
-0.044668797 -0.24490823 1.7570001
-0.035426978 -0.24490823 1.7570001
-0.024644854 -0.24490826 1.7570001
-0.013349296 -0.2459351 1.7570001
0.12784518 -0.24798883 1.7570001
0.13439147 -0.2452933 1.7570001
0.14478852 -0.24490826 1.7570001
0.15518557 -0.24452315 1.7570001
0.16481246 -0.24452315 1.7570001
0.17405428 -0.24490823 1.7570001
0.1848364 -0.24490826 1.7570001
0.19377016 -0.24552436 1.7570002
0.20177974 -0.24490823 1.7570001
0.29265764 -0.24182762 1.7570001
-0.1426321 -0.23751478 1.7570002
-0.1340064 -0.23566641 1.7570001
-0.12476458 -0.23566641 1.7570001
-0.11552276 -0.23566641 1.7570001
-0.10474063 -0.23566644 1.7570001
-0.093958504 -0.23566641 1.7570001
-0.084716685 -0.23566641 1.7570001
-0.075474866 -0.23566641 1.7570001
-0.064692743 -0.23566644 1.7570001
-0.053910617 -0.23566641 1.7570001
-0.044668797 -0.23566641 1.7570001
-0.035426978 -0.23566641 1.7570001
-0.024644854 -0.23720671 1.7570001
-0.012835861 -0.23772015 1.7570001
0.1355467 -0.23874702 1.7570001
0.14530195 -0.23669328 1.7570001
0.15557064 -0.23566641 1.7570001
0.16481246 -0.23566641 1.7570001
0.17405428 -0.23566641 1.7570001
0.1848364 -0.23566644 1.7570001
0.19473836 -0.2361065 1.7570001
0.20177974 -0.23720671 1.7570001
0.22745146 -0.23515297 1.7570001
0.23463954 -0.23361267 1.7570001
0.2695531 -0.2325858 1.7570001
0.27571431 -0.23412611 1.7570001
0.285983 -0.23463954 1.7570001
0.29381287 -0.23528133 1.7570001
0.30498007 -0.2325858 1.7570001
-0.13195266 -0.22847833 1.7570001
-0.12476457 -0.22796489 1.7570001
-0.11552275 -0.22796489 1.7570001
-0.10474063 -0.22796489 1.7570001
-0.093650445 -0.22580847 1.7570002
-0.084716685 -0.22488432 1.7570001
-0.075474866 -0.22488432 1.7570001
-0.064692743 -0.22488433 1.7570001
-0.053910617 -0.22488432 1.7570001
-0.044668797 -0.22488432 1.7570001
-0.03570703 -0.22530438 1.7570001
-0.029265763 -0.2295052 1.7570001
0.12476457 -0.22796489 1.7570001
0.15618676 -0.22550042 1.7570002
0.16481246 -0.22488432 1.7570001
0.17405428 -0.22488432 1.7570001
0.18483643 -0.22488433 1.7570001
0.19253792 -0.22488429 1.7570001
0.22745146 -0.22129025 1.7570001
0.23505029 -0.22149563 1.7570002
0.2695531 -0.22437085 1.7570001
0.27571434 -0.22488432 1.7570001
0.28418598 -0.22873504 1.7570001
0.29419795 -0.2295052 1.7570001
0.30343977 -0.2295052 1.7570001
-0.090877898 -0.21718277 1.7570001
-0.084716685 -0.21641262 1.7570001
-0.075474866 -0.21564247 1.7570001
-0.066233046 -0.21564247 1.7570001
-0.053910617 -0.21564247 1.7570001
-0.045438949 -0.21641262 1.7570001
-0.038507584 -0.21718277 1.7570001
0.14940943 -0.21410216 1.7570001
0.15469047 -0.21454225 1.7570001
0.16635276 -0.21718277 1.7570001
0.17482443 -0.21641262 1.7570001
0.18560655 -0.21448724 1.7570001
0.19407822 -0.21333201 1.7570001
0.22550042 -0.21410218 1.7570002
0.23528133 -0.21410216 1.7570001
0.26801279 -0.21410216 1.7570001
0.274174 -0.21410216 1.7570001
0.29419795 -0.21102156 1.7570001
0.15659751 -0.20588721 1.7570001
0.16327216 -0.20332004 1.7570001
0.17251398 -0.20177974 1.7570001
0.18714686 -0.2056305 1.7570001
0.19561853 -0.20486034 1.7570001
0.20442025 -0.20398018 1.7570001
0.2161559 -0.20280661 1.7570001
0.22457623 -0.20486036 1.7570002
0.23566641 -0.20486034 1.7570001
0.24446814 -0.20398018 1.7570001
0.25312319 -0.20280661 1.7570001
0.26613021 -0.20417577 1.7570001
0.274174 -0.20486034 1.7570001
0.15865125 -0.19869913 1.7570001
0.16442738 -0.19523345 1.7570001
0.17405428 -0.19561853 1.7570001
0.18445133 -0.19561853 1.7570001
0.19649871 -0.19605862 1.7570001
0.20524542 -0.1960036 1.7570001
0.21410216 -0.19561853 1.7570001
0.22488432 -0.19561853 1.7570001
0.23478624 -0.19605862 1.7570001
0.24490823 -0.19869913 1.7570001
0.25476617 -0.19746688 1.7570002
0.26535228 -0.19589858 1.7570001
0.2726337 -0.19561853 1.7570001
0.15865125 -0.1832961 1.7570001
0.16447017 -0.18534984 1.7570001
0.17590263 -0.18576059 1.7570002
0.18261153 -0.18500754 1.7570001
0.19746688 -0.18699282 1.7570002
0.20794095 -0.18637671 1.7570001
0.21410219 -0.1848364 1.7570001
0.22488433 -0.18483643 1.7570001
0.23412611 -0.1848364 1.7570001
0.24798883 -0.1832961 1.7570001
0.25723067 -0.1832961 1.7570001
0.26585639 -0.18545252 1.7570002
0.2726337 -0.18791701 1.7570001
0.16173185 -0.17713489 1.7570001
0.1817558 -0.17559458 1.7570001
0.21498235 -0.17449437 1.7570001
0.22502433 -0.17433433 1.7570001
0.23335595 -0.17482443 1.7570001
0.2467566 -0.17343816 1.7570002
0.25415006 -0.17251398 1.7570001
0.26390532 -0.17456771 1.7570001
0.21564247 -0.16789307 1.7570001
0.2325858 -0.16173185 1.7570001
0.2467566 -0.16542858 1.7570002
0.25260976 -0.16789307 1.7570001
0.2325858 -0.15865125 1.7570001
0.16635276 -0.13092579 1.7570001
0.17097367 -0.13092579 1.7570001
-0.17405428 -0.12784518 1.7570001
-0.16481246 -0.12784518 1.7570001
-0.12630488 -0.12168396 1.7570001
0.16583933 -0.12681831 1.7570001
0.17097367 -0.12784518 1.7570001
-0.12476457 -0.11860336 1.7570001
-0.11552275 -0.11860336 1.7570001
-0.10566481 -0.11367439 1.7570002
-0.10114659 -0.10833467 1.7570001
-0.094471939 -0.10217346 1.7570001
-0.085486837 -0.10088987 1.7570001
-0.075474866 -0.10088987 1.7570001
-0.06777335 -0.10011972 1.7570001
-0.082662947 -0.096012242 1.7570001
-0.075034782 -0.094838679 1.7570001
-0.066233046 -0.092638247 1.7570001
-0.056991223 -0.090877898 1.7570001
-0.064032607 -0.086477034 1.7570001
-0.054526739 -0.084100559 1.7570002
-0.044668797 -0.081636079 1.7570001
-0.036967281 -0.081636079 1.7570001
-0.05083001 -0.077015169 1.7570001
-0.047749404 -0.078555472 1.7570001
-0.035426978 -0.078555472 1.7570001
-0.024644854 -0.077015169 1.7570001
-0.01386273 -0.073934563 1.7570001
-0.0040047886 -0.063768558 1.7570002
0.0038507583 -0.060841981 1.7570001
0.010782124 -0.06007183 1.7570001
0.015403034 -0.056991223 1.7570001
0.02310455 -0.056991223 1.7570001
0.035426978 -0.054937486 1.7570001
0.044668797 -0.053910617 1.7570001
0.052370314 -0.053910617 1.7570001
0.069313653 -0.05083001 1.7570001
0.072394259 -0.05083001 1.7570001
0.11552275 -0.05083001 1.7570001
0.077015169 -0.047749404 1.7570001
0.084716685 -0.043641929 1.7570001
0.094728656 -0.043128494 1.7570001
0.1040805 -0.04334854 1.7570001
0.11552275 -0.044668797 1.7570001
0.12476457 -0.044668797 1.7570001
0.1340064 -0.042358343 1.7570001
0.14016761 -0.041588191 1.7570001
0.15557064 -0.041588191 1.7570001
0.16481246 -0.041588191 1.7570001
0.14838256 -0.037480716 1.7570001
0.15557064 -0.038507584 1.7570001
0.16481246 -0.038507584 1.7570001
0.1832961 -0.038507584 1.7570001
0.085150629 -0.49077728 1.7660002
0.091343403 -0.49077728 1.766
0.19971694 -0.45826524 1.766
0.20281333 -0.45671701 1.7660002
0.057283152 -0.35298806 1.766
0.060379539 -0.35453627 1.766
0.30809048 -0.35453627 1.766
0.044897605 -0.34524712 1.766
0.054806042 -0.34462783 1.766
0.060379539 -0.34834349 1.766
0.054186765 -0.33286157 1.766
0.068120509 -0.33286157 1.766
0.083602436 -0.33286157 1.766
-0.17804223 -0.32202423 1.766
0.068430148 -0.3266688 1.766
0.075242199 -0.32357243 1.766
0.085150629 -0.32512057 1.7660002
-0.18113862 -0.31118685 1.766
-0.17804223 -0.31428325 1.7660002
0.026319286 -0.31118685 1.7660002
0.036227725 -0.3124254 1.766
0.042833347 -0.31221899 1.7660002
0.07740967 -0.31505734 1.766
0.085150629 -0.31428325 1.7659999
-0.18113862 -0.30499408 1.7660002
-0.17649405 -0.30499408 1.7659999
0.014707837 -0.30267179 1.766
0.024771089 -0.30499408 1.7660002
0.035608452 -0.30499411 1.7659999
0.043349411 -0.30499411 1.7659999
0.065540187 -0.30292982 1.7660002
0.077100031 -0.30375552 1.766
0.084763572 -0.30460706 1.7659999
0.093665697 -0.30267179 1.766
0.10063256 -0.3018977 1.766
-0.18320286 -0.29776919 1.7660002
-0.17804223 -0.29725313 1.766
-0.0015481933 -0.29260853 1.766
0.0056767091 -0.29467279 1.7659999
0.01393374 -0.29570493 1.7659999
0.024771092 -0.29570493 1.7660002
0.035608448 -0.2957049 1.7659999
0.044897605 -0.29570493 1.7659999
0.054186769 -0.29531786 1.7659999
0.065446354 -0.29542339 1.766
0.075861476 -0.2957049 1.7659999
0.085150629 -0.29570493 1.7659999
0.09443979 -0.29570496 1.7659999
0.10505598 -0.29526258 1.7659999
0.11921088 -0.29260853 1.766
0.12850004 -0.29260853 1.766
-0.18320286 -0.28228724 1.7660002
-0.17804223 -0.28177118 1.766
-0.0046445802 -0.28424829 1.766
0.0046445802 -0.28486758 1.7660002
0.013933738 -0.28486758 1.7660002
0.024771091 -0.28486755 1.7660003
0.035608448 -0.28486755 1.7660002
0.044897601 -0.28486755 1.7660002
0.054186765 -0.28486761 1.7660002
0.06502413 -0.28486755 1.7660003
0.075861476 -0.28486755 1.7660002
0.085150629 -0.28486755 1.7660002
0.094439797 -0.28486755 1.7660002
0.10544916 -0.2850396 1.7659999
0.11645855 -0.28538364 1.7659999
0.12628834 -0.28508875 1.7659999
-0.18423501 -0.27314553 1.7659999
-0.17804223 -0.27248204 1.766
-0.0046445802 -0.27403021 1.7659999
0.0046445802 -0.27403021 1.7659999
0.01393374 -0.27403021 1.7659999
0.024771089 -0.27403021 1.7660002
0.035608452 -0.27403021 1.7659999
0.044897605 -0.27403021 1.7659999
0.054186769 -0.27403021 1.7659999
0.065245293 -0.27403021 1.7659999
0.075861476 -0.27358788 1.7659999
0.085150629 -0.27403021 1.7659999
0.091343403 -0.27093384 1.766
0.1161145 -0.27557841 1.766
0.12850004 -0.27557841 1.766
-0.18423501 -0.26474106 1.7659999
-0.17726813 -0.26396695 1.766
-0.0046445802 -0.26474106 1.7659999
0.0046445802 -0.26474106 1.7659999
0.01393374 -0.26474106 1.7659999
0.024771092 -0.26474103 1.7660002
0.035608448 -0.26474106 1.7659999
0.044455264 -0.26385635 1.7659999
0.054573815 -0.26435399 1.7659999
0.063475929 -0.26706332 1.766
0.076480754 -0.2653603 1.766
0.085150629 -0.26474106 1.7659999
0.093997441 -0.26385638 1.7659999
0.10063256 -0.26319286 1.766
0.11301811 -0.26164466 1.766
-0.19042778 -0.25700009 1.766
-0.18423502 -0.25700009 1.7659999
-0.1753329 -0.25506485 1.7659999
-0.16875307 -0.25235552 1.766
-0.0046445802 -0.25545189 1.7659999
0.0046445802 -0.25545189 1.7659999
0.013933741 -0.25545189 1.7659999
0.024771089 -0.25545192 1.7660002
0.035608448 -0.25545189 1.7659999
0.044897605 -0.25545192 1.7659999
0.054186769 -0.25545189 1.7659999
0.061153635 -0.2546778 1.766
0.075861476 -0.25854829 1.7660002
0.085150629 -0.25545189 1.7659999
0.09443979 -0.25545192 1.7659999
0.10441703 -0.25476381 1.7659999
0.1161145 -0.25545192 1.7659999
0.12385546 -0.25390372 1.766
0.13159643 -0.25235552 1.766
-0.17432657 -0.24802057 1.766
-0.16627596 -0.24554348 1.766
-0.15791571 -0.24306636 1.766
-0.014965869 -0.24409848 1.7660002
-0.0046445802 -0.24925913 1.7660002
0.0046445797 -0.24802057 1.766
0.014376082 -0.24704742 1.7659999
0.024771092 -0.24616277 1.7660002
0.035608452 -0.24616276 1.7659999
0.044897605 -0.24616273 1.7659999
0.054186769 -0.24616276 1.7659999
0.061618097 -0.24616274 1.766
0.076746158 -0.24616276 1.7659999
0.085150622 -0.24616273 1.7659999
0.09443979 -0.24616276 1.7659999
0.10527714 -0.24616271 1.7660002
0.1161145 -0.24616273 1.7659999
0.12501661 -0.24577568 1.7659999
0.13159643 -0.24306636 1.766
-0.15361518 -0.23756167 1.7659999
-0.14442433 -0.23289251 1.7659999
-0.1377892 -0.23068081 1.766
-0.024107579 -0.23245017 1.7659999
-0.014277782 -0.23412126 1.7659999
0.024771092 -0.23996997 1.766
0.035608448 -0.23873141 1.766
0.044897605 -0.23873141 1.766
0.053567488 -0.23873141 1.766
0.078957863 -0.23996997 1.766
0.085769907 -0.23532541 1.766
0.094439797 -0.2353254 1.7660002
0.10527714 -0.23532541 1.7660003
0.1161145 -0.2353254 1.7660002
0.12540366 -0.23574764 1.766
0.13438319 -0.23439649 1.766
0.14398198 -0.23222899 1.7659999
0.15017475 -0.23068081 1.766
0.29570493 -0.23068081 1.766
0.30499408 -0.23068081 1.766
