# .PCD v0.7 - Point Cloud Data file format
VERSION 0.7
FIELDS x y z
SIZE 4 4 4
TYPE F F F
COUNT 1 1 1
WIDTH 1462
HEIGHT 1
VIEWPOINT 0 0 0 1 0 0 0
POINTS 1462
DATA ascii
-0.004984187 0.028180113 1.0118461
0.0052054618 0.027405428 1.0153685
0.013697625 0.02888412 1.0190001
-0.11245003 0.030990167 1.01
-0.1036655 0.032237388 1.0106925
-0.094596937 0.033806413 1.0122501
-0.085011572 0.035112493 1.0130002
-0.075032681 0.035474718 1.014182
-0.065959401 0.037599139 1.0140502
-0.057368893 0.038540896 1.0129999
-0.021313518 0.031082217 1.013
-0.015064859 0.031677254 1.0107501
-0.0049103694 0.031964459 1.0102729
0.0059792758 0.03490717 1.0124003
0.01494632 0.035287179 1.0154645
0.022328433 0.035793353 1.0187693
-0.081017144 0.043828953 1.01
-0.074671544 0.043386236 1.0100001
-0.068178363 0.041615367 1.01
0.0076833987 0.042247731 1.011
0.01494613 0.042244419 1.0135455
0.021925258 0.040817425 1.0166
-0.16026343 0.12838784 1.01
-0.15849257 0.12661697 1.01
-0.16137406 0.13462715 1.0103002
-0.16322382 0.14529532 1.016
-0.15634926 0.14626649 1.0102309
-0.14963824 0.14963824 1.01
-0.16266832 0.15374085 1.0184
-0.15648268 0.15485613 1.0156254
-0.14963824 0.1514091 1.01
-0.15597425 0.16240618 1.0190001
0.25864822 -0.38301566 1.028
0.26189086 -0.38376942 1.0259999
0.26344085 -0.37413293 1.0243331
0.25868854 -0.36365709 1.0271428
0.26153788 -0.36619276 1.0238001
0.25753549 -0.35481986 1.0254736
0.26072243 -0.35927728 1.0220001
0.25549343 -0.34485486 1.0250001
0.2496361 -0.3316465 1.028
0.25355825 -0.33536172 1.0248696
0.2496361 -0.32533801 1.028
0.2525197 -0.32593724 1.0246001
0.2488105 -0.31414863 1.0256001
0.25155124 -0.31681454 1.0226002
0.24522763 -0.30421823 1.0246667
0.239555 -0.29322395 1.026
0.24277037 -0.29523537 1.0236156
0.23905149 -0.28456137 1.0259001
0.24126741 -0.28555313 1.0220002
0.23855054 -0.27486438 1.0253
0.24131007 -0.27535632 1.0220002
0.2298094 -0.26135188 1.028
0.23346362 -0.26320836 1.0237144
0.2298094 -0.25504336 1.028
0.23183089 -0.25615045 1.0239092
0.22806682 -0.24486315 1.02625
0.23085731 -0.24638717 1.0220002
0.22672234 -0.23514444 1.0255455
0.23026 -0.23205191 1.0220001
0.22484775 -0.22493352 1.0244546
0.22259143 -0.21541063 1.0242499
0.2187371 -0.20217581 1.0267999
0.22179732 -0.2061912 1.024308
0.2176903 -0.1946937 1.0248499
0.22130047 -0.19890164 1.0220001
0.21690962 -0.18469352 1.025111
0.22130047 -0.18187852 1.0220001
0.21591407 -0.17503348 1.0254443
0.22130047 -0.17829472 1.0220001
0.20946774 -0.16492203 1.028
0.21472855 -0.16506715 1.0242758
0.20998271 -0.15771233 1.028
0.21378823 -0.15506254 1.0244782
0.2096823 -0.14449453 1.028
0.21291223 -0.14505619 1.0232354
0.20845205 -0.13506924 1.0266153
0.21197973 -0.13541034 1.0229232
0.20883639 -0.12512349 1.0267999
0.21276905 -0.12418039 1.0222145
0.22309238 -0.1227456 1.0220001
0.20887722 -0.11524133 1.027
0.21438143 -0.11555148 1.0234998
0.22195008 -0.11951158 1.0250001
0.20908152 -0.10634317 1.028
0.21257122 -0.10763567 1.026
-0.30070484 -0.032143276 1.028
-0.29469678 -0.03244368 1.028
-0.28478339 -0.032443684 1.028
-0.27637208 -0.032143276 1.028
-0.31169105 -0.024332762 1.028
-0.30451801 -0.025545225 1.0255554
-0.29460472 -0.026949476 1.02455
-0.28492016 -0.02745102 1.0238947
-0.27445516 -0.027242195 1.02545
-0.26456603 -0.023952205 1.0255452
-0.25482285 -0.024194956 1.0248845
-0.24563964 -0.023533968 1.0257499
-0.23583412 -0.021956723 1.0270768
-0.22800696 -0.020727906 1.028
-0.24369931 -0.01881502 1.0220001
-0.23442638 -0.017171435 1.0240626
-0.22489117 -0.015438629 1.0259598
-0.21672614 -0.012378862 1.026875
-0.2090815 -0.011715773 1.028
-0.22189778 -0.0092581846 1.0220001
-0.21461505 -0.0078809895 1.0238333
-0.20479292 -0.0065781553 1.0243999
-0.19561276 -0.0042382437 1.0245712
-0.18560663 -0.0020087804 1.0266153
-0.17496434 -0.0017185853 1.0263636
-0.16852689 -0.00090121332 1.028
-0.19442187 0.00089595339 1.0220001
-0.1838647 0.0019414515 1.0222503
-0.17484696 0.0026885611 1.0228002
-0.16528437 0.0032910069 1.0246665
-0.15476665 0.0066641429 1.024842
-0.14574227 0.0082109189 1.0258
-0.13699456 0.00890557 1.0273334
-0.15141611 0.011647393 1.0220001
-0.14490521 0.013335904 1.0221766
-0.13452126 0.013451573 1.0230001
-0.12559855 0.015372658 1.0246471
-0.11545473 0.017842725 1.02625
-0.10577237 0.01811213 1.0273333
-0.11309206 0.022257928 1.0230912
-0.10439756 0.022731971 1.0236666
-0.095281333 0.024816118 1.0244542
-0.084941328 0.025738364 1.025
-0.075466536 0.027848635 1.0248332
-0.06453646 0.028274957 1.0272
-0.055629767 0.028443625 1.0267999
-0.049566735 0.029740039 1.028
0.007197543 0.023387166 1.026125
0.015638603 0.024167253 1.0243748
0.025197081 0.025191389 1.0264167
0.034799621 0.026216885 1.0278571
-0.072572216 0.031358365 1.0220001
-0.06343472 0.033285283 1.0227501
-0.054797541 0.034135386 1.0246999
-0.046824381 0.034512207 1.0256922
0.027166406 0.034232032 1.0228825
0.033893395 0.034789056 1.0263332
0.029566459 0.0403179 1.0220001
0.033247583 0.040436249 1.0250001
-0.17213175 0.14779899 1.028
-0.16822343 0.14611185 1.0225002
-0.17211451 0.15605734 1.0270001
-0.16731972 0.15517491 1.023154
-0.1640017 0.16503388 1.0239614
-0.1574638 0.16687132 1.0220002
-0.17032932 0.17032932 1.028
-0.16509184 0.17427161 1.0267999
-0.15858375 0.17112708 1.0220001
0.25796443 -0.3922528 1.0373334
0.26068428 -0.39283872 1.0325
0.25750738 -0.38490602 1.0341054
0.26121071 -0.38413343 1.031
0.25634763 -0.37490723 1.0343705
0.25437146 -0.36525568 1.0334617
0.25231698 -0.35556552 1.0338697
0.24885237 -0.34330794 1.036
0.25177494 -0.34630713 1.0322309
0.24703391 -0.33487955 1.0348825
0.2503646 -0.33713356 1.031
0.24544953 -0.32494184 1.0337144
0.24399488 -0.31552792 1.0346787
0.23810732 -0.30263528 1.0366668
0.24205424 -0.30589107 1.0328335
0.23753428 -0.29476988 1.0341876
0.23493609 -0.28477401 1.0335002
0.23421308 -0.27519259 1.0333848
0.22774208 -0.26416919 1.0350001
0.2325637 -0.26712227 1.0313334
0.22675635 -0.25462189 1.034
0.22489072 -0.24507864 1.0332144
0.21930517 -0.23113492 1.0380001
0.22225776 -0.23455088 1.0330001
0.21816887 -0.22346933 1.0355002
0.2213099 -0.22696944 1.0325
0.21690106 -0.21481358 1.0345771
0.21556167 -0.20532063 1.0337392
0.20838542 -0.1910958 1.0380001
0.21260329 -0.19550572 1.0339133
0.20809503 -0.18471126 1.0360001
0.21196868 -0.18581356 1.032091
0.20732874 -0.17499335 1.0348825
0.21126615 -0.17630702 1.0313334
0.20582707 -0.16488154 1.0334002
0.20493534 -0.15509698 1.0331516
0.21059549 -0.15274952 1.031
0.19928561 -0.14286686 1.0380001
0.20442715 -0.14491038 1.0325152
0.20391794 -0.13475285 1.0334349
0.19842298 -0.122994 1.0366668
0.20391363 -0.12483726 1.0331726
0.19722567 -0.11451829 1.0367501
0.203622 -0.11493483 1.0323201
0.19767119 -0.10529995 1.0361539
0.2038677 -0.10470591 1.0318439
0.21059549 -0.10213429 1.031
0.19729537 -0.094555706 1.0371112
0.20250912 -0.095417008 1.0324738
0.19645369 -0.084974416 1.0366668
0.20110558 -0.088268057 1.0380001
0.19382574 -0.07916826 1.0380001
-0.31326061 -0.041631587 1.0380001
-0.30707181 -0.042136103 1.0373334
-0.29301354 -0.040949099 1.0380001
-0.28427497 -0.041780181 1.036
-0.27463195 -0.040949099 1.0380001
-0.3230429 -0.039129138 1.0380001
-0.31427467 -0.035805255 1.0360835
-0.3050406 -0.035474051 1.0322001
-0.2949549 -0.037097074 1.0320556
-0.2844736 -0.037184693 1.0313751
-0.27433053 -0.036089297 1.0333334
-0.26479742 -0.035373062 1.0344287
-0.25540867 -0.034270316 1.0350478
-0.24527438 -0.032010604 1.0366668
-0.23568481 -0.030332668 1.0380001
-0.31182596 -0.029374907 1.031
-0.30821058 -0.029826829 1.031
-0.27024916 -0.028922986 1.031
-0.26522779 -0.029023413 1.031
-0.2548838 -0.029826829 1.031
-0.24431278 -0.028535821 1.0318183
-0.23443276 -0.026363855 1.0329446
-0.22476816 -0.024475588 1.0338335
-0.21800582 -0.021499226 1.0361668
-0.22415315 -0.01898071 1.031
-0.21507217 -0.016388485 1.033182
-0.20504592 -0.013611839 1.0349377
-0.19506885 -0.013749202 1.0367501
-0.18630336 -0.012875603 1.0366668
-0.17926607 -0.01000978 1.0380001
-0.20336474 -0.0099422764 1.031
-0.19332202 -0.0089380061 1.031
-0.18499537 -0.0074194064 1.0319002
-0.17515087 -0.0056046848 1.0345885
-0.16513942 -0.0030471387 1.0353531
-0.15540437 -0.0015154644 1.0366666
-0.14741677 -0.00090997998 1.0380001
-0.1626918 0.00090384332 1.031
-0.15490331 0.0021557235 1.0314616
-0.14463797 0.0031155276 1.0326113
-0.13478237 0.0055361982 1.0341668
-0.12523669 0.00816576 1.0352224
-0.11583958 0.0081821056 1.0372001
-0.1226875 0.012539337 1.0322858
-0.11492656 0.013221703 1.0348424
-0.1048212 0.01383281 1.034261
-0.09509892 0.016213616 1.0359526
-0.085298471 0.01696147 1.0356843
-0.075639598 0.018103484 1.0372728
-0.068248503 0.019109581 1.0380001
-0.093457401 0.021149931 1.031
-0.085110158 0.021626573 1.0318183
-0.074863337 0.022536416 1.0335627
-0.065509513 0.023423521 1.0341054
-0.055332132 0.025576487 1.0347002
-0.044760987 0.027658321 1.0354211
-0.035172395 0.02699309 1.0368001
0.03796142 0.028019143 1.031
0.043421384 0.027428532 1.0361001
-0.043189421 0.032787334 1.03175
-0.034989685 0.032612167 1.0334376
-0.026336819 0.030877953 1.036
0.038381092 0.036056168 1.0318573
0.043478932 0.035058778 1.0365791
0.038978353 0.040791299 1.034
0.042716458 0.040896501 1.0366668
-0.17444175 0.14732647 1.031
-0.17453723 0.16547818 1.0328752
-0.1690187 0.16811486 1.031
-0.17344049 0.17544697 1.033389
-0.16811486 0.17986482 1.031
0.2490222 -0.4118284 1.04625
0.25113475 -0.41245106 1.0455
0.24986053 -0.40911227 1.044
0.25530595 -0.40417606 1.046625
0.2608434 -0.40179035 1.044
0.24874277 -0.39193049 1.0470001
0.25386825 -0.39523211 1.044643
0.26009384 -0.39881057 1.041
0.24874277 -0.38550541 1.0470001
0.25282094 -0.38500348 1.0441501
0.2492218 -0.37363884 1.0457143
0.25172728 -0.37668124 1.0433999
0.24723642 -0.36473253 1.0447146
0.25096774 -0.36778185 1.041
0.24624196 -0.35486755 1.044778
0.25096774 -0.35683051 1.041
0.24462889 -0.34539264 1.0448574
0.23956406 -0.33318678 1.0470001
0.24294937 -0.33537513 1.0438125
0.23766765 -0.32449409 1.0461999
0.24087381 -0.32558084 1.0417501
0.23650315 -0.3148827 1.0456501
0.24001643 -0.31485045 1.041
0.22854963 -0.30014348 1.0470001
0.2339115 -0.30459595 1.0445558
0.24001643 -0.30846217 1.041
0.22878475 -0.29300094 1.0464
0.2329009 -0.29543066 1.0440001
0.22796278 -0.28469685 1.0459999
0.23119842 -0.285831 1.0435715
0.22621535 -0.27531052 1.0447202
0.23089033 -0.27652082 1.041
0.21937093 -0.26159295 1.0470001
0.22393349 -0.26531714 1.0434288
0.21884644 -0.25451225 1.0470001
0.22243012 -0.25535277 1.0430624
0.21860395 -0.24475536 1.046625
0.22165275 -0.24528731 1.0422
0.21741813 -0.23451345 1.0445001
0.22176422 -0.2381912 1.041
0.21464807 -0.2252086 1.0445296
0.2115241 -0.21507955 1.044
0.20851496 -0.20278879 1.0455
0.21147934 -0.20654285 1.0434
0.20634134 -0.19507277 1.044158
0.19917779 -0.18082039 1.0470001
0.20336589 -0.18479784 1.0442858
0.19917779 -0.17470126 1.0470001
0.20303492 -0.1750035 1.044
0.19777519 -0.16419131 1.0463077
0.20176166 -0.16589777 1.0428461
0.19792601 -0.15502098 1.0445715
0.20168681 -0.15970674 1.041
0.18999909 -0.14318772 1.0470001
0.19653241 -0.14463767 1.0442311
0.1894746 -0.13414015 1.0470001
0.19608442 -0.13488235 1.0440001
0.20168681 -0.13506627 1.041
0.18965907 -0.12490997 1.0465714
0.194654 -0.12549001 1.0436403
0.1883332 -0.11388799 1.04625
0.19338641 -0.11529963 1.0438334
0.18637462 -0.10472021 1.0450437
0.19353704 -0.10484817 1.0430001
0.18596628 -0.094847843 1.0438931
0.19289809 -0.095079318 1.0428333
0.18572399 -0.085088186 1.0436403
0.19258738 -0.08520411 1.0418571
0.1867851 -0.075593963 1.0437143
0.19146663 -0.078138612 1.0425
0.18632761 -0.06884025 1.0470001
-0.33133528 -0.055911168 1.0455
-0.32530099 -0.053786431 1.0452695
-0.31424651 -0.052376639 1.0454999
-0.30475783 -0.053101454 1.045143
-0.29507077 -0.053119246 1.045435
-0.28717494 -0.051511176 1.0465714
-0.27811462 -0.050482851 1.0470001
-0.26434657 -0.050482851 1.0470001
-0.25792149 -0.050482851 1.0470001
-0.32363519 -0.045191795 1.0418574
-0.31543943 -0.046154641 1.0418824
-0.30441287 -0.045394029 1.0425001
-0.29495943 -0.045591649 1.0419548
-0.28468055 -0.046315175 1.0426669
-0.27503127 -0.045635045 1.0429091
-0.26497278 -0.044675268 1.0428623
-0.25523746 -0.04480892 1.0446926
-0.24731493 -0.042762604 1.045909
-0.32154295 -0.038025416 1.041
-0.25368452 -0.038240783 1.0413333
-0.24452047 -0.036615539 1.0429566
-0.23498721 -0.035394099 1.0440003
-0.22559689 -0.033351671 1.0438802
-0.21875902 -0.030901624 1.0470001
-0.22162485 -0.027874056 1.0425
-0.21459159 -0.025313221 1.0444802
-0.20517848 -0.023912067 1.0456252
-0.19673809 -0.022768868 1.0464545
-0.18908122 -0.02111101 1.0470001
-0.21172552 -0.01916481 1.041
-0.20487131 -0.018127711 1.0424999
-0.19518928 -0.018198881 1.0426364
-0.18423855 -0.016629215 1.0444738
-0.17558609 -0.012319213 1.045
-0.16600321 -0.011089995 1.0461818
-0.15787363 -0.01009657 1.0470001
-0.17339589 -0.0082134902 1.041
-0.16356924 -0.0072281961 1.0423638
-0.15472069 -0.0057381061 1.0443159
-0.14461768 -0.0031824547 1.0452354
-0.13484851 -0.001835214 1.0464
-0.12574819 -0.0013768049 1.0470001
-0.14145455 0.00091260998 1.041
-0.1339187 0.0017249876 1.0423335
-0.12493173 0.0026268768 1.0430626
-0.11544772 0.0051502311 1.0438421
-0.10496499 0.0069351224 1.0450714
-0.094540611 0.0082608303 1.0470001
-0.088115513 0.0082608303 1.0470001
-0.11498886 0.01003871 1.041
-0.10312492 0.01003871 1.041
-0.094664618 0.011313451 1.0421538
-0.084656052 0.011608819 1.0435385
-0.074435502 0.014016103 1.044158
-0.065114968 0.015733376 1.0448184
-0.055266675 0.017334474 1.0468335
-0.044951435 0.018346353 1.0464
-0.035757151 0.018795623 1.045875
-0.0275361 0.01927527 1.0470001
-0.06114487 0.020990029 1.041
-0.053974073 0.022305638 1.0435385
-0.045222037 0.022572886 1.0428463
-0.034363177 0.022136914 1.0421538
-0.024957439 0.025035201 1.0443915
-0.017872164 0.026119845 1.0455
0.046908151 0.035226744 1.041
0.047455721 0.041067451 1.041
-0.18265456 0.1676625 1.0428001
-0.18239619 0.17231278 1.0455
-0.17795895 0.17613372 1.041
-0.18143231 0.18938719 1.0470001
-0.17704941 0.18682294 1.0454999
-0.17737027 0.19327299 1.0465
0.24847117 -0.41387397 1.0552
0.25641185 -0.41210699 1.054
0.26223817 -0.41235331 1.057
0.24849631 -0.4049294 1.0532942
0.2529074 -0.40640077 1.0500001
0.2605015 -0.40778151 1.0500001
0.24662873 -0.39469326 1.0541112
0.24691926 -0.38432974 1.0527225
0.24520917 -0.37479341 1.053421
0.23999889 -0.36416823 1.057
0.24261601 -0.36531049 1.0522858
0.23948802 -0.35322368 1.05475
0.24137381 -0.35607219 1.0513334
0.23859088 -0.34323725 1.0553334
0.2402505 -0.34518749 1.0500001
0.23628193 -0.33467221 1.0540589
0.2402505 -0.33874398 1.0500001
0.23409711 -0.32518116 1.0525
0.23223396 -0.31426239 1.0523638
0.22781648 -0.305078 1.0527143
0.22619174 -0.29508969 1.0536472
0.22369599 -0.28485647 1.0520771
0.22173356 -0.27442998 1.0520002
0.21919011 -0.26257241 1.0527501
0.22153349 -0.26698971 1.0538
0.21734388 -0.25488701 1.053
0.21628417 -0.24485826 1.0513334
0.21315542 -0.23457788 1.0532
0.20894709 -0.22348751 1.0552857
0.21134351 -0.22657582 1.0527501
0.2082285 -0.21448816 1.0542308
0.20578319 -0.20517023 1.0532668
0.2021288 -0.19474806 1.0528182
0.19799481 -0.18398638 1.05375
0.20104948 -0.18906194 1.052
0.19659466 -0.1750731 1.0538499
0.18996051 -0.16216141 1.057
0.1938532 -0.1654893 1.0538825
0.1883876 -0.15451142 1.0553846
0.19262841 -0.15484232 1.0513333
0.18774047 -0.14496841 1.0542144
0.19192426 -0.145439 1.0500001
0.18601094 -0.1350302 1.0535501
0.18554671 -0.12493264 1.0526154
0.17884088 -0.11026976 1.057
0.18326809 -0.11551633 1.05275
0.17884088 -0.10470995 1.057
0.18166211 -0.10538218 1.0526
0.17863783 -0.095338382 1.0558001
0.18075989 -0.094992094 1.052
0.17807291 -0.084451251 1.0550001
0.18108508 -0.08472091 1.0514547
-0.32802939 -0.071351022 1.057
-0.30486345 -0.071351022 1.057
-0.29930365 -0.071351022 1.057
0.17743079 -0.074623778 1.0556364
0.1819728 -0.074319154 1.0511767
-0.34060532 -0.064942062 1.0552
-0.33523309 -0.065113433 1.0543603
-0.32496393 -0.065057136 1.05344
-0.31513855 -0.065567523 1.0555555
-0.30524087 -0.065067455 1.0552224
-0.29530528 -0.064119294 1.0559566
-0.28441864 -0.061940067 1.0567858
-0.27521107 -0.061158024 1.057
-0.26501808 -0.06115802 1.057
-0.25621504 -0.060694702 1.057
0.17671795 -0.065691963 1.0554
0.18208425 -0.067149155 1.0516667
-0.33340508 -0.059096098 1.0500001
-0.32475242 -0.057623297 1.0500001
-0.31562322 -0.057558324 1.0500001
-0.3050946 -0.058196053 1.0500001
-0.29529727 -0.058276858 1.051
-0.28490967 -0.055159777 1.0521001
-0.27520522 -0.054785375 1.0525186
-0.26513848 -0.054896031 1.052762
-0.25474942 -0.054621924 1.0544583
-0.24614865 -0.054107968 1.0560001
-0.23629236 -0.052248053 1.057
-0.22702599 -0.050965015 1.057
-0.25221699 -0.048786499 1.0500001
-0.24406408 -0.046056814 1.0517144
-0.23496763 -0.045177713 1.0532225
-0.22591563 -0.045246333 1.0554738
-0.21961288 -0.04169865 1.057
-0.23288649 -0.0395815 1.0500001
-0.22389761 -0.038178921 1.0519001
-0.21553664 -0.034481823 1.0537598
-0.20526159 -0.031439107 1.0547001
-0.19482537 -0.031273991 1.057
-0.18996051 -0.031505648 1.057
-0.20395088 -0.028557241 1.0508001
-0.19400682 -0.02607201 1.0525626
-0.18549772 -0.024883227 1.0546364
-0.17513433 -0.021312643 1.057
-0.16507371 -0.021577394 1.057
-0.15752822 -0.021312643 1.057
-0.1813385 -0.0193305 1.0500001
-0.17474848 -0.017656242 1.0524668
-0.16487256 -0.016344726 1.0532174
-0.15522006 -0.014207697 1.0529615
-0.14553532 -0.012279178 1.0556
-0.13559784 -0.011016681 1.057
-0.12880249 -0.010193003 1.057
-0.15004151 -0.0082844999 1.0500001
-0.14462651 -0.0073703127 1.0508001
-0.13507175 -0.0064624576 1.0526251
-0.12484618 -0.0055939644 1.0532632
-0.11580558 -0.0024409587 1.0552728
-0.10748985 -0.00092663668 1.057
-0.11451956 0.0012279177 1.0506667
-0.10499603 0.0027674905 1.0536667
-0.095004834 0.0046081105 1.0521334
-0.084562629 0.0051959231 1.0526363
-0.075041071 0.0058091544 1.0537059
-0.065649517 0.0067547848 1.0547693
-0.054671563 0.0083397301 1.057
-0.04725847 0.0083397301 1.057
-0.080083497 0.0101255 1.0500001
-0.074560501 0.0101255 1.0500001
-0.064003244 0.010590571 1.0505002
-0.054970562 0.012328839 1.0516876
-0.045434859 0.013123848 1.0529447
-0.035306655 0.014322323 1.0543499
-0.02506105 0.016394107 1.0538751
-0.01543001 0.01785217 1.0547693
-0.0061775781 0.018841611 1.057
-0.022092 0.021171499 1.0500001
-0.013725873 0.023459407 1.0517778
-0.00505517 0.024085954 1.0543529
0.002470593 0.022536324 1.0565001
-0.18470515 0.17703858 1.0557144
-0.19181378 0.18440069 1.057
-0.18534191 0.18460761 1.0544283
-0.18373384 0.19451006 1.0515386
-0.17739348 0.1973815 1.0500001
-0.1824179 0.20186411 1.0562501
-0.18254742 0.21219979 1.057
0.24486208 -0.42262664 1.0642
0.25183126 -0.4209578 1.0600001
0.23852785 -0.41531909 1.067
0.24434167 -0.41517779 1.0627272
0.23837765 -0.40321875 1.0663334
0.24356642 -0.40540233 1.0613844
0.23809054 -0.39463982 1.0650555
0.24228631 -0.39464456 1.060643
0.23901264 -0.38466206 1.0650001
0.24284828 -0.38476253 1.0608823
0.23813877 -0.37436545 1.0630001
0.24121107 -0.37529096 1.0600001
0.23723966 -0.36487094 1.0638946
0.24068005 -0.3652018 1.0600001
0.2360332 -0.35456291 1.0631665
0.24068007 -0.3596262 1.0600001
0.22840703 -0.34339151 1.0663333
0.23381624 -0.34518331 1.0613077
0.22844802 -0.33525679 1.0636365
0.23184341 -0.33512861 1.0605456
0.22883452 -0.32490566 1.0654286
0.23144428 -0.32574061 1.0609232
0.2268842 -0.31510752 1.06375
0.23138739 -0.31687993 1.0600001
0.22368644 -0.30526534 1.0624737
0.22280359 -0.29510915 1.0619167
0.21863715 -0.28497925 1.0658
0.22126999 -0.28576228 1.0610001
0.21777526 -0.27432117 1.0648572
0.2208557 -0.27599218 1.0600001
0.21585684 -0.26487783 1.063889
0.2202362 -0.26855806 1.0600001
0.21389332 -0.25603214 1.0637727
0.20833194 -0.24134313 1.0656667
0.21285075 -0.24567774 1.0624762
0.2072137 -0.23457 1.0636668
0.21140817 -0.23742762 1.0600001
0.20448491 -0.22476737 1.0624999
0.20338131 -0.21521397 1.0627391
0.19783781 -0.20415178 1.067
0.20172003 -0.2051754 1.0610715
0.19744222 -0.19475096 1.0651667
0.20100433 -0.19774663 1.0615001
0.18941917 -0.18193594 1.067
0.194106 -0.18558101 1.0626316
0.18779479 -0.1743253 1.0650001
0.19250198 -0.17514303 1.0608002
0.18694912 -0.16486831 1.0645001
0.19049966 -0.16633873 1.0600001
0.18454845 -0.1550452 1.0635294
0.18335892 -0.14467625 1.06335
0.17849284 -0.13410501 1.0660001
0.18194723 -0.13589466 1.0623637
0.1784026 -0.12485112 1.0654668
0.181207 -0.125451 1.0600001
0.17749587 -0.11491375 1.0637778
0.17561911 -0.10452764 1.0641053
0.17503987 -0.094398804 1.0634998
-0.33379206 -0.084095381 1.0665295
-0.32561073 -0.082672298 1.0664287
-0.31803712 -0.081380092 1.067
0.16930801 -0.083250895 1.067
0.17353114 -0.084902316 1.06425
-0.34333342 -0.075535521 1.0653126
-0.33506915 -0.075559534 1.0629165
-0.32509932 -0.075815767 1.0637037
-0.31516081 -0.075534016 1.0636153
-0.30516958 -0.075328395 1.0629166
-0.29561684 -0.074245535 1.0645001
-0.28516111 -0.073226847 1.0650002
-0.27556983 -0.071901344 1.0670002
-0.26565456 -0.070155248 1.067
-0.25349429 -0.070155248 1.067
0.16823898 -0.073095083 1.067
0.17317258 -0.075677559 1.0629473
-0.32524332 -0.069694996 1.0600001
-0.3150214 -0.069694996 1.0600001
-0.29310906 -0.068293303 1.0606667
-0.28521428 -0.067841329 1.0616666
-0.27490827 -0.066145472 1.061
-0.26511407 -0.066253424 1.0625001
-0.25512528 -0.064951405 1.0629566
-0.24545361 -0.063953184 1.0648926
-0.23644382 -0.062654488 1.0666925
-0.22917381 -0.060801215 1.067
0.16836704 -0.067221053 1.0650001
0.17238073 -0.064904891 1.0616843
-0.24306962 -0.057747286 1.0600001
-0.23434809 -0.056727249 1.0626667
-0.22586052 -0.054415695 1.064
-0.21888438 -0.051447183 1.067
0.17398502 -0.058930408 1.067
-0.22147843 -0.046531714 1.0615001
-0.21522801 -0.044859171 1.0642308
-0.20726098 -0.041895028 1.0662727
-0.1954993 -0.040222343 1.067
-0.21317378 -0.038471639 1.0600001
-0.20480905 -0.03630954 1.0619445
-0.1950759 -0.035864796 1.0617059
-0.18587588 -0.033638574 1.0627999
-0.17601958 -0.031466197 1.0661111
-0.16930801 -0.03086831 1.067
-0.18199746 -0.028214931 1.061
-0.17494224 -0.025866678 1.06124
-0.16523534 -0.025756907 1.0633751
-0.15461908 -0.025854981 1.0673125
-0.14605424 -0.022815775 1.0666001
-0.13563348 -0.021514276 1.067
-0.15229857 -0.019153938 1.0606
-0.14436771 -0.017466808 1.0616473
-0.13468188 -0.016420692 1.0633478
-0.12496947 -0.013665115 1.0624999
-0.1153379 -0.01187825 1.0638667
-0.10712399 -0.010900182 1.0656668
-0.1143043 -0.0065134126 1.0611252
-0.10516832 -0.0048310305 1.0625
-0.094703838 -0.0033337127 1.0635713
-0.084822536 -0.0037330654 1.0632499
-0.075240627 -0.0024287754 1.0648668
-0.06454283 -0.00093540334 1.067
-0.057995006 -0.00093540334 1.067
-0.10129007 0.00092926668 1.0600001
-0.095714465 0.00092926668 1.0600001
-0.08456327 0.00092926668 1.0600001
-0.074684836 0.0012394605 1.0605
-0.064626582 0.0024198336 1.0622667
-0.055004824 0.0037243869 1.0634499
-0.044849232 0.0046582865 1.0638181
-0.034838133 0.0066378447 1.0633125
-0.025660252 0.0069963112 1.0644168
-0.017750455 0.0084081106 1.0656667
-0.032896038 0.01059364 1.0600001
-0.024425846 0.011578854 1.0605456
-0.014951861 0.012871889 1.0622941
-0.0044425339 0.015187375 1.0635294
0.0040853759 0.017383642 1.0648751
0.014394691 0.019628743 1.0662
0.024320487 0.019643471 1.067
0.0065048663 0.021373134 1.0600001
0.054253392 0.049576376 1.067
0.054487247 0.054721095 1.067
0.036480729 0.068284445 1.067
0.056124203 0.060801215 1.067
-0.1923582 0.18771186 1.0600001
-0.19245364 0.19507663 1.0611179
-0.18826942 0.19756208 1.0600001
-0.19376719 0.20514965 1.063421
-0.18576282 0.20601687 1.0603158
-0.19329765 0.21386036 1.0662
-0.18670748 0.21378003 1.0620002
0.22813129 -0.44286308 1.0762
0.23283231 -0.44168273 1.077
0.22889379 -0.43580192 1.077
0.235192 -0.43480361 1.0739999
0.24270195 -0.43373522 1.0716667
0.22929128 -0.42461526 1.0763334
0.23467766 -0.42532167 1.0719333
0.24268262 -0.42653719 1.0700001
0.25139293 -0.42680517 1.0700001
0.22943331 -0.41732314 1.077
0.23464918 -0.41548744 1.0721934
0.24107456 -0.4164868 1.0700001
0.23420444 -0.40565336 1.0722692
0.22859403 -0.39518762 1.077
0.23292662 -0.3947753 1.0715714
0.22880387 -0.38553607 1.077
0.23390765 -0.38534057 1.07156
0.22828954 -0.37509888 1.0765556
0.23363018 -0.37563798 1.0713199
0.22713216 -0.36489928 1.0745
0.2323634 -0.36558774 1.0710588
0.22615919 -0.35484466 1.0734444
0.23244467 -0.35776591 1.0700001
0.22525112 -0.34556431 1.0729524
0.22474669 -0.33451888 1.0726817
0.21999161 -0.32007363 1.077
0.22456867 -0.3252629 1.0725832
0.21831754 -0.3137981 1.0762
0.22225469 -0.31566685 1.0713636
0.21768966 -0.30441758 1.0737334
0.22097383 -0.30405682 1.0700001
0.21661678 -0.29475033 1.07375
0.2207505 -0.29610586 1.0700001
0.2141926 -0.28473788 1.0734781
0.20921475 -0.2723549 1.075
0.21321857 -0.27555394 1.0723999
0.20913725 -0.26566261 1.0746
0.21183501 -0.26626131 1.0703751
0.20763278 -0.25478786 1.0733333
0.2110575 -0.25420702 1.0700001
0.20593496 -0.24509934 1.0721111
0.19921987 -0.23226582 1.077
0.20268176 -0.23597749 1.0724117
0.19820672 -0.22454451 1.0728124
0.20167716 -0.22981817 1.0700001
0.19681709 -0.21480712 1.0724347
0.18977816 -0.20205238 1.077
0.19426641 -0.20536436 1.0715238
0.18880573 -0.19446549 1.0755
0.19266482 -0.19548221 1.07075
0.18687207 -0.18486756 1.0740666
0.19042076 -0.18760666 1.0700001
0.18421008 -0.17481136 1.0720834
0.18237554 -0.16478385 1.0723571
0.17870061 -0.15230593 1.0752858
0.1814137 -0.1563535 1.0722222
0.17699939 -0.14448889 1.0733333
0.18104044 -0.14820927 1.0700001
0.17475416 -0.13459508 1.0727646
0.17302045 -0.12506793 1.07265
0.16900642 -0.11046789 1.077
0.17234416 -0.1156294 1.0723332
0.16840714 -0.10342264 1.0744001
0.1717791 -0.10607207 1.07075
-0.35028708 -0.091584489 1.077
-0.34408835 -0.094027683 1.0766922
-0.33593845 -0.094168112 1.0752
-0.32412004 -0.091854259 1.077
-0.31377915 -0.091899216 1.077
-0.30559635 -0.091584481 1.077
-0.29741356 -0.091584489 1.077
0.1670052 -0.094751813 1.0729998
0.17166011 -0.096617438 1.0700001
-0.35222378 -0.086680859 1.0766666
-0.34462133 -0.085453756 1.072238
-0.33688956 -0.08807683 1.0704287
-0.32459182 -0.087877229 1.0720624
-0.3151302 -0.085492574 1.0725198
-0.30497697 -0.085770234 1.0725356
-0.29516977 -0.085119493 1.0735199
-0.28594375 -0.084181488 1.0760587
-0.27448371 -0.082682319 1.077
-0.26657066 -0.08025445 1.077
0.16562782 -0.085066535 1.0730714
-0.35086742 -0.079956383 1.0730001
-0.34801036 -0.079732835 1.0700001
-0.30361012 -0.079732835 1.0700001
-0.29477698 -0.079029314 1.0700001
-0.28544581 -0.078105241 1.0701874
-0.27473935 -0.077481091 1.0708823
-0.26534474 -0.075259581 1.0730383
-0.25540027 -0.073475063 1.0730499
-0.24510981 -0.072857596 1.0727057
-0.23714459 -0.072197743 1.0741667
0.15932767 -0.074482821 1.0754001
0.1645655 -0.075488955 1.0722306
-0.24357599 -0.068476431 1.0700001
-0.23363243 -0.06645254 1.071375
-0.22595446 -0.063711114 1.0739444
-0.21908981 -0.061924517 1.0756668
0.15956473 -0.068924412 1.077
0.1659777 -0.064987659 1.0725294
-0.22189699 -0.057011578 1.0700001
-0.21496332 -0.055429038 1.0730399
-0.20693126 -0.052171562 1.0764287
-0.19733153 -0.050041009 1.077
0.17192274 -0.058186822 1.0740001
-0.21255836 -0.048965342 1.0700001
-0.20453577 -0.046185467 1.0711364
-0.19516796 -0.044254746 1.0720416
-0.18562995 -0.042379111 1.0741874
-0.1753009 -0.040914033 1.077
-0.16711809 -0.040599309 1.077
-0.18323833 -0.037024166 1.0706668
-0.17483252 -0.036353525 1.0718946
-0.16493472 -0.034719188 1.0723703
-0.15561096 -0.033489838 1.0743333
-0.14890009 -0.03109975 1.075
-0.16265497 -0.02870382 1.0700001
-0.14411262 -0.027050134 1.072111
-0.13469769 -0.024686748 1.0721053
-0.12556262 -0.024174569 1.0742221
-0.13038664 -0.0196987 1.0700001
-0.12409732 -0.01900208 1.0703751
-0.11498891 -0.017582182 1.0741667
-0.10447141 -0.014583515 1.0745237
-0.095170803 -0.013195893 1.0748498
-0.085606821 -0.011982091 1.0747856
-0.075896539 -0.01084349 1.0755
-0.065619811 -0.01038587 1.077
-0.058538541 -0.01038587 1.077
-0.10099492 -0.0078169443 1.0700001
-0.095545396 -0.0079062814 1.0700001
-0.085361026 -0.0084423004 1.0700001
-0.074640043 -0.0069588046 1.0723332
-0.064875528 -0.0056466102 1.0725
-0.054831743 -0.0052376622 1.0732398
-0.04549399 -0.0034550685 1.0737143
-0.035517562 -0.0025160331 1.0756665
-0.026301876 -0.0014836958 1.077
-0.0188834 -0.00094416999 1.077
-0.043618552 0.00093803334 1.0700001
-0.034764569 0.0018781706 1.0718
-0.024925927 0.0025270926 1.0713845
-0.015057113 0.0047037555 1.0737499
-0.0048502209 0.0067350538 1.075857
0.0040127225 0.0077894018 1.077
0.01133004 0.0084975297 1.077
-0.012194433 0.010318367 1.0700001
-0.0038895197 0.010866784 1.0712858
0.0053728395 0.012217603 1.0722857
0.015140742 0.014285169 1.0729355
0.025584809 0.014345333 1.0747306
0.03462626 0.016538315 1.0753635
0.042723693 0.018647358 1.077
0.050041009 0.019827571 1.077
0.010318367 0.021574767 1.0700001
0.036822628 0.021715909 1.077
0.044375993 0.021715909 1.077
0.050041009 0.021715909 1.077
0.044585805 0.046474144 1.077
0.050557952 0.047414809 1.0746666
0.028603589 0.056264173 1.0756668
0.035701692 0.056156818 1.0761577
0.045057088 0.05473844 1.0740286
0.053651337 0.055527408 1.0705832
0.036975313 0.064078636 1.0723332
0.045099597 0.064833365 1.0718
0.054486945 0.065219723 1.072647
0.038459368 0.071290538 1.0700001
0.043695692 0.072391823 1.0745385
0.053817689 0.070812747 1.077
-0.20036128 0.20976792 1.0730001
-0.19886306 0.20636734 1.0700001
-0.20329235 0.21660432 1.0748124
-0.19736134 0.21550307 1.0703334
-0.20173764 0.2225094 1.077
-0.19485159 0.22365472 1.0726315
0.21758722 -0.44819784 1.087
0.22302872 -0.44425344 1.0838635
0.23007239 -0.4421556 1.08
0.22421944 -0.43502593 1.0840625
0.22442351 -0.42508623 1.0846128
0.22464313 -0.41505548 1.0848999
0.23007239 -0.4137516 1.08
0.2182225 -0.40880984 1.087
0.22435744 -0.40499321 1.0844375
0.23007241 -0.40617719 1.08
0.2182225 -0.39546871 1.087
0.223432 -0.39495996 1.0845599
0.2182225 -0.3849864 1.087
0.22368495 -0.38528398 1.0838213
0.2182225 -0.37450415 1.087
0.22322294 -0.37530783 1.0831921
0.21805681 -0.36366189 1.0861818
0.22249331 -0.3658455 1.0828749
0.21797986 -0.35505301 1.0857999
0.22131449 -0.35528669 1.08
0.21686496 -0.34521413 1.0857368
0.22131452 -0.3451086 1.08
0.21594504 -0.33507568 1.0844229
0.22107781 -0.33611402 1.08
0.21571405 -0.3250044 1.0839999
0.2206044 -0.32569921 1.08
0.21372314 -0.31510842 1.0835453
0.20869313 -0.30446327 1.087
0.2129157 -0.30490926 1.0832173
0.20763431 -0.29339859 1.087
0.21205992 -0.29521763 1.0827999
0.20632076 -0.28401989 1.0845712
0.21057709 -0.28836021 1.082
0.19916376 -0.27730456 1.087
0.20598723 -0.27533045 1.0841303
0.19889151 -0.26423573 1.087
0.20441343 -0.26506275 1.0837082
0.1970747 -0.25451678 1.086
0.20310549 -0.25563267 1.0835294
0.19707309 -0.24518487 1.0847646
0.20208736 -0.24715123 1.0831819
0.19712955 -0.23563109 1.0828333
0.1896344 -0.22108132 1.087
0.19364662 -0.22497715 1.0828124
0.18847211 -0.21417511 1.0857999
0.1920207 -0.21572866 1.0816666
0.18820786 -0.20490777 1.0848889
0.1903068 -0.2073492 1.08
0.18631536 -0.19469948 1.0825
0.18349814 -0.18488136 1.0845455
0.17791662 -0.17166649 1.0852858
0.18150991 -0.17564455 1.0830001
0.17742582 -0.16413008 1.0837499
0.18083878 -0.1675836 1.08
0.17533131 -0.15494947 1.0829473
0.16866979 -0.14008169 1.087
0.17214911 -0.14555816 1.0834374
0.16817789 -0.13321377 1.085375
0.17111726 -0.13640337 1.082
0.16814522 -0.12471569 1.0828749
0.16709191 -0.11463478 1.0836666
-0.3625924 -0.10148776 1.087
-0.35401422 -0.10269842 1.0867
-0.34562162 -0.10383721 1.0852143
-0.33517081 -0.10412872 1.0836999
-0.32528517 -0.10343674 1.0849373
-0.31598786 -0.1021561 1.0861428
-0.30419853 -0.10069364 1.087
-0.29445744 -0.10005834 1.087
-0.28778687 -0.10005835 1.087
0.15914042 -0.10196421 1.087
0.16387101 -0.1054694 1.0829046
-0.3614333 -0.098515123 1.0840001
-0.35505313 -0.095683493 1.0834666
-0.34690753 -0.097899117 1.08
-0.33289421 -0.097415201 1.0807272
-0.32483849 -0.096912518 1.0806
-0.31535158 -0.096738957 1.0812631
-0.30467761 -0.095054336 1.081
-0.29475406 -0.095218569 1.0828499
-0.28515053 -0.093837738 1.0848333
-0.27592248 -0.092888258 1.0853124
-0.26586935 -0.090846621 1.087
0.15914042 -0.094340727 1.087
0.16179386 -0.09580338 1.0819999
-0.29319242 -0.089946002 1.08
-0.28416306 -0.08777152 1.0812
-0.27524689 -0.086550474 1.0812308
-0.26488888 -0.084835425 1.0818518
-0.25539503 -0.084397562 1.0836666
-0.24522899 -0.083850652 1.0843998
-0.23718692 -0.082056746 1.0865715
0.15777782 -0.083934091 1.0855
0.16079336 -0.085726172 1.0805
-0.25441867 -0.078043379 1.08
-0.24545792 -0.077874303 1.08
-0.23407923 -0.075922541 1.0818571
-0.22562388 -0.073623501 1.0859444
-0.2182225 -0.071470253 1.087
0.15696226 -0.07601998 1.0812
-0.2237491 -0.067997403 1.08225
-0.21477683 -0.065307721 1.0844229
-0.20530987 -0.062720753 1.0867499
-0.19916376 -0.060035009 1.087
0.15785939 -0.068468764 1.0847501
0.16288665 -0.06368386 1.0842727
-0.21133015 -0.059230227 1.081
-0.20447153 -0.056081798 1.0825453
-0.19494528 -0.054246992 1.0838259
-0.18554436 -0.052576229 1.086
-0.17724621 -0.050505642 1.087
0.16505004 -0.055055875 1.0834515
0.17205843 -0.053503755 1.0810909
-0.1912536 -0.048286799 1.08
-0.1841054 -0.046593353 1.0812308
-0.17472896 -0.045845401 1.0832273
-0.16447692 -0.044928294 1.0845
-0.15558781 -0.043310318 1.0864706
-0.14389342 -0.041611567 1.087
0.15914042 -0.048599768 1.087
0.16435485 -0.046531074 1.0862001
-0.16000921 -0.038818799 1.08
-0.15347382 -0.037563764 1.082
-0.14461412 -0.035517238 1.0839628
-0.13496931 -0.034518417 1.0861249
-0.12567192 -0.03316503 1.086
-0.11721121 -0.031446911 1.087
-0.1353924 -0.029350799 1.08
-0.1232887 -0.027504832 1.0818334
-0.11526396 -0.025531122 1.085125
-0.10514979 -0.024753641 1.085909
-0.09505184 -0.023197811 1.0850768
-0.084786907 -0.021339729 1.0867
-0.079093739 -0.020964606 1.087
0.15723455 -0.025729289 1.087
-0.1107756 -0.0198828 1.08
-0.10477921 -0.019567199 1.08
-0.095173478 -0.019035462 1.0807272
-0.085191786 -0.016732555 1.0828124
-0.07544557 -0.014585177 1.0847501
-0.064972699 -0.014050438 1.0852352
-0.054541048 -0.012717473 1.0843749
-0.045071427 -0.011680627 1.0855454
-0.035893947 -0.010799948 1.087
-0.025729289 -0.010482303 1.087
-0.043214656 -0.0077231829 1.0817143
-0.034551188 -0.006796055 1.0832309
-0.025036627 -0.0061519397 1.0831052
-0.015643425 -0.0038517965 1.0834736
-0.0054764273 -0.0016673104 1.086625
0.0038117464 -0.00095293665 1.087
0.010482303 -0.00095293665 1.087
-0.0123084 0.00094679999 1.08
-0.0045669554 0.0021530932 1.0814545
0.0050790971 0.0032885317 1.0819999
0.014984289 0.0051547228 1.0830435
0.025382129 0.0055591939 1.0837618
0.034169152 0.0075097214 1.086
0.040976275 0.0085764304 1.087
0.035776764 0.011134544 1.0810001
0.045206394 0.013883729 1.0825
0.053514935 0.014995803 1.0840869
0.060035009 0.01429405 1.087
0.053020798 0.021776401 1.08
0.027965568 0.046328619 1.0834445
0.035066668 0.046437152 1.0810666
0.040762663 0.046448138 1.0813333
0.02804081 0.051884137 1.0817143
0.033654436 0.052418288 1.08
0.0577548 0.069116399 1.08
0.048443284 0.07409279 1.0835
0.054096472 0.072234504 1.0825555
-0.21084593 0.22638339 1.085
-0.20542945 0.22630002 1.0821539
-0.21212371 0.23537536 1.087
-0.20509633 0.23479006 1.0842855
-0.19863455 0.23242594 1.0806667
-0.20518102 0.24179214 1.0863333
0.20804848 -0.45232114 1.097
0.21225503 -0.45117369 1.0936
0.20868962 -0.44815373 1.097
0.21448128 -0.44479141 1.0934688
0.20868962 -0.4356516 1.097
0.21482468 -0.4350968 1.0940001
0.20868962 -0.42795798 1.097
0.21486814 -0.42500085 1.0949143
0.22073589 -0.42236048 1.09
0.21550547 -0.41479397 1.0942084
0.21538469 -0.40475637 1.0937144
0.21467428 -0.3949047 1.0939286
0.21453331 -0.38554069 1.0947274
0.21404658 -0.3751491 1.0949167
0.20868962 -0.36448556 1.097
0.21336798 -0.36523226 1.0932273
0.20814006 -0.35459375 1.097
0.21281789 -0.35500678 1.0937619
0.20868962 -0.3452515 1.097
0.21184048 -0.34508482 1.0934286
0.20623781 -0.33411631 1.0967501
0.21060863 -0.33506024 1.0920001
0.20582151 -0.32535186 1.0952801
0.21101691 -0.32465196 1.0905715
0.20596284 -0.3147836 1.0947309
0.19907258 -0.30101314 1.097
0.20484631 -0.30487525 1.0954001
0.19811088 -0.29404077 1.097
0.20345119 -0.29541707 1.0938948
0.19713934 -0.28538734 1.095625
0.20198536 -0.28631443 1.0931112
0.19644108 -0.2754541 1.0948
0.20162459 -0.2752032 1.09
0.19547608 -0.26533374 1.0938948
0.20162457 -0.26660311 1.09
0.18945555 -0.25388968 1.097
0.19293326 -0.2550112 1.0935625
0.18873426 -0.24451306 1.097
0.19253644 -0.24490269 1.0926667
0.18766865 -0.23497599 1.0960771
0.19248946 -0.23526731 1.0924
0.18635716 -0.22472143 1.0938889
0.19063556 -0.22694708 1.09
0.1846239 -0.21434991 1.0937222
0.17983852 -0.2019577 1.097
0.18417983 -0.20480824 1.0942501
0.17881534 -0.19395824 1.0966251
0.18299997 -0.19532289 1.0929286
0.176899 -0.18519339 1.0957369
0.18133751 -0.1854398 1.0911429
0.17470618 -0.17589805 1.0947143
0.17246093 -0.16509607 1.0938947
0.16845654 -0.15406181 1.0949167
0.1717881 -0.15617232 1.0906668
0.16739909 -0.14477596 1.0936667
0.16468251 -0.13501033 1.0940589
-0.3731409 -0.12069377 1.097
-0.36390853 -0.12136696 1.097
-0.35486853 -0.12155931 1.097
-0.34557366 -0.12352321 1.0965
-0.33723733 -0.12149519 1.097
0.15868105 -0.12277746 1.097
0.16290767 -0.1253698 1.0940477
-0.37209386 -0.11572063 1.0941819
-0.36480162 -0.1151788 1.094381
-0.35451445 -0.11522359 1.0948695
-0.34442228 -0.11622643 1.0933044
-0.33540556 -0.11492252 1.0939168
-0.32516843 -0.11406898 1.0959091
-0.31466407 -0.11275584 1.0961667
-0.306014 -0.11194227 1.097
-0.29716632 -0.11059588 1.097
0.15777798 -0.11398167 1.0966668
0.16234715 -0.11598103 1.093375
-0.36415777 -0.10684972 1.09
-0.35566187 -0.10734199 1.09
-0.34495956 -0.1089346 1.09
-0.33508536 -0.10925312 1.09
-0.32519376 -0.10822482 1.0907273
-0.31428766 -0.10588204 1.09175
-0.30512774 -0.1060142 1.0925264
-0.29488015 -0.10535496 1.0929525
-0.28590301 -0.10409369 1.094579
-0.27563408 -0.10199248 1.0960715
-0.26600713 -0.10136352 1.097
0.15633139 -0.10454319 1.0940527
0.16149077 -0.10989016 1.09
-0.28380325 -0.098423369 1.09
-0.27370119 -0.096921064 1.0910001
-0.26502365 -0.095688254 1.0924546
-0.25562018 -0.093969248 1.0942174
-0.24547023 -0.092912033 1.096077
-0.23792541 -0.092131183 1.097
0.14906402 -0.09520863 1.097
0.15472081 -0.09468805 1.0938696
-0.25131404 -0.088867702 1.09
-0.24478742 -0.088998146 1.0916002
-0.23459023 -0.085983746 1.0930456
-0.22621655 -0.08298979 1.0965
-0.21734495 -0.081744783 1.097
0.15406974 -0.086192809 1.0916001
-0.22410005 -0.078139536 1.092077
-0.21466647 -0.07563483 1.0940741
-0.20604898 -0.072742939 1.0965999
-0.21213579 -0.069756366 1.09
-0.20440373 -0.066958718 1.0923078
-0.19541757 -0.063531965 1.094348
-0.18555693 -0.061532449 1.0967001
-0.17663284 -0.060907882 1.097
0.15693982 -0.062846757 1.0924375
0.16212781 -0.063385926 1.09
-0.19111334 -0.058289565 1.09
-0.1840753 -0.057063673 1.0930909
-0.17474885 -0.055188082 1.09356
-0.1649776 -0.054258086 1.0933601
-0.15515555 -0.052927259 1.0952941
-0.1452172 -0.051931985 1.097
-0.13848528 -0.050970275 1.097
0.15580128 -0.05484654 1.0933334
-0.15350667 -0.047344673 1.0910001
-0.1449393 -0.046476223 1.0923529
-0.13519771 -0.04507314 1.09376
-0.12705676 -0.042567912 1.0952222
0.15589151 -0.045187626 1.0946364
0.16360021 -0.0419898 1.0913334
-0.13282377 -0.039178234 1.09
-0.12392472 -0.03748095 1.0924667
-0.11472541 -0.034796834 1.0933001
-0.10536471 -0.033567894 1.0938751
-0.09520863 -0.03173621 1.097
0.15485105 -0.03539006 1.095577
0.162709 -0.037117057 1.0942308
-0.1118013 -0.029622566 1.09
-0.10442979 -0.029349549 1.09
-0.094430968 -0.028089546 1.093154
-0.085433088 -0.026485141 1.0934376
-0.075109251 -0.024121759 1.0934
-0.064683214 -0.02181959 1.0947334
-0.05499474 -0.02194478 1.0950714
-0.045363229 -0.02088253 1.0951251
-0.035564613 -0.020184722 1.0964
-0.028851099 -0.020195769 1.097
0.15406044 -0.026780371 1.09495
-0.073897153 -0.017518723 1.09
-0.064842023 -0.017882748 1.09
-0.0540426 -0.017306374 1.09
-0.044673931 -0.016395422 1.0908573
-0.035188939 -0.015457476 1.0910527
-0.024707653 -0.015137475 1.0925201
-0.014732487 -0.01293099 1.0947647
-0.0048019416 -0.011525975 1.0955001
0.00288511 -0.010578737 1.097
-0.012678354 -0.0074174767 1.0915
-0.0044484129 -0.0062529035 1.0918823
0.0049727042 -0.0055245864 1.0926667
0.014376974 -0.0036688498 1.0933529
0.024928303 -0.0028804345 1.0936667
0.035062142 -0.0025858295 1.0945385
0.043578371 -0.0016024006 1.0965
0.016244633 0.00095556659 1.09
0.024844734 0.00095556671 1.09
0.035962183 0.0032252567 1.09025
0.045165718 0.0046234671 1.09225
0.054644179 0.0047866004 1.09352
0.064186394 0.0049589383 1.0955001
0.07020434 0.0086553302 1.097
0.057811782 0.01290015 1.09
0.064387187 0.014379705 1.0933751
0.056651447 0.022251053 1.09
0.064754404 0.02393263 1.0955833
0.07020434 0.027889397 1.097
0.089438409 0.02596599 1.097
0.048912741 0.077684939 1.0940001
0.054584332 0.076607257 1.0923001
0.060200699 0.0774009 1.09
-0.21595806 0.22838043 1.09
-0.21595581 0.23511128 1.0924001
-0.22088799 0.24778152 1.0955
-0.21570624 0.24473977 1.094
-0.20774019 0.24634509 1.09
-0.21253644 0.25100458 1.097
-0.20868962 0.25100458 1.097
0.1964063 -0.45478454 1.1079999
0.20340443 -0.45259237 1.1022499
0.19665043 -0.4441677 1.1071999
0.20475025 -0.44500142 1.1014799
0.19817373 -0.43528929 1.1065713
0.20381711 -0.43465811 1.1022592
0.19690585 -0.42489481 1.1079999
0.20490669 -0.42526755 1.1035184
0.19781311 -0.41519746 1.1069999
0.20496903 -0.41489097 1.1022649
0.21138099 -0.41523337 1.1010001
0.19847851 -0.4082894 1.108
0.20507035 -0.40466672 1.1039091
0.21138099 -0.40731862 1.1010001
0.19829348 -0.39395046 1.1079999
0.20516093 -0.39474872 1.1041032
0.21138099 -0.39863172 1.1010001
0.19815472 -0.38562462 1.1079999
0.20500235 -0.38484854 1.1025171
0.21138099 -0.3841536 1.1010001
0.19864038 -0.3749398 1.1079999
0.20480038 -0.37532392 1.1026665
0.21138099 -0.37932754 1.1010001
0.19748226 -0.36380669 1.1079999
0.20409136 -0.36485645 1.1018571
0.19724511 -0.35468155 1.1075714
0.20353442 -0.35453856 1.1029582
0.19815472 -0.34482804 1.1079999
0.20406218 -0.3448821 1.1031998
0.19757067 -0.33428067 1.1070713
0.20323285 -0.33639666 1.101923
0.19661123 -0.32505816 1.1060767
0.20333757 -0.32463232 1.101
0.19637701 -0.31545421 1.1059257
0.20365933 -0.31562367 1.1010001
0.18941259 -0.30791688 1.108
0.19536282 -0.30535698 1.1050664
0.20365931 -0.30404115 1.1010001
0.18941259 -0.2933467 1.108
0.19378218 -0.29532582 1.1041498
0.18876503 -0.283957 1.1079999
0.19271715 -0.28568995 1.1046922
0.18817635 -0.27524433 1.1079999
0.19146408 -0.27519372 1.1035454
0.18746214 -0.2646957 1.1071427
0.19129558 -0.26511168 1.1014444
0.18649262 -0.25466359 1.1045333
0.19014637 -0.2596415 1.1010001
0.18479159 -0.24523215 1.1047999
0.17969914 -0.2311805 1.108
0.18320683 -0.23529638 1.1050587
0.17969914 -0.22438106 1.108
0.18269639 -0.22550328 1.1055833
0.178849 -0.21379575 1.10725
0.18160364 -0.21585573 1.1027143
0.17687917 -0.20470366 1.1051427
0.18049426 -0.20752014 1.1010001
0.17525868 -0.19543168 1.1038947
0.16950509 -0.1838747 1.1073999
0.17190702 -0.18500969 1.1023334
0.16878419 -0.17557573 1.1064999
0.17084217 -0.174703 1.1010001
0.16694574 -0.16501191 1.1050553
0.16465883 -0.15497507 1.1048748
0.1583295 -0.14084527 1.108
0.1626911 -0.1450285 1.1050587
-0.38346606 -0.13350619 1.1079999
-0.37510091 -0.13321918 1.107294
-0.3647306 -0.13192563 1.1065
-0.35449961 -0.13263251 1.1055382
-0.34497571 -0.1325189 1.1053748
-0.33594719 -0.13168684 1.1079999
-0.32928652 -0.1311318 1.108
0.15800804 -0.13415125 1.1057693
0.16177817 -0.13761139 1.1028334
-0.38119003 -0.12738624 1.105
-0.37516433 -0.12589249 1.1031176
-0.36529499 -0.12635258 1.1021763
-0.35535991 -0.12688084 1.1019999
-0.34339979 -0.12757961 1.1017272
-0.33435854 -0.1254696 1.1049564
-0.32569686 -0.12415542 1.1068094
-0.31579131 -0.12338095 1.107
-0.30522701 -0.12261383 1.1079999
-0.29626074 -0.12238968 1.1079999
0.15633096 -0.12512566 1.1044116
-0.32373142 -0.11833475 1.1010001
-0.31538236 -0.11799692 1.101
-0.30440325 -0.11683494 1.1039999
-0.2944203 -0.11564339 1.1052172
-0.28536731 -0.11387853 1.1064498
-0.27532279 -0.11256829 1.1079999
0.15449572 -0.1150789 1.1044285
-0.28365064 -0.10835463 1.1021429
-0.27497289 -0.10747789 1.1032939
-0.2649945 -0.10583005 1.1042629
-0.2559627 -0.1030019 1.1066666
-0.24587739 -0.10312941 1.1077
-0.23927505 -0.10069627 1.108
0.15237615 -0.10565631 1.1056999
-0.25463191 -0.098952584 1.103
-0.24487901 -0.097992219 1.1023333
-0.23493789 -0.095068708 1.1051248
-0.2254027 -0.09108936 1.1066666
-0.21855299 -0.090335242 1.108
0.14960755 -0.097486213 1.1010001
0.15107568 -0.098893553 1.1023334
-0.23068519 -0.08879932 1.1010001
-0.22454576 -0.086761214 1.1016666
-0.21495907 -0.084694073 1.1037366
-0.20579663 -0.081528805 1.105909
-0.19135529 -0.080621772 1.108
-0.20344092 -0.07647872 1.1017272
-0.19533442 -0.074395269 1.1039999
-0.1852639 -0.07388036 1.1053331
-0.17717433 -0.071220055 1.1068
-0.19290413 -0.067702584 1.101
-0.18435511 -0.066599488 1.101
-0.17477433 -0.065504588 1.1026189
-0.16548143 -0.064535163 1.1054999
-0.15521809 -0.062283728 1.106077
-0.14657275 -0.061639093 1.10725
-0.16215527 -0.058877811 1.1010001
-0.15448795 -0.058127034 1.1014
-0.14491734 -0.057004068 1.1042352
-0.13484703 -0.054157972 1.1041051
-0.12744553 -0.053163804 1.1076249
0.1470619 -0.052258451 1.108
0.15084453 -0.053182986 1.103
-0.13030335 -0.048260503 1.1010001
-0.12440455 -0.046238512 1.1038889
-0.11537596 -0.045574069 1.1059598
-0.10593744 -0.04458547 1.106714
-0.096810877 -0.04241547 1.108
-0.08450716 -0.041767906 1.108
0.14594238 -0.04560674 1.1068999
0.15092158 -0.045007579 1.1027778
-0.11485998 -0.03957361 1.1010001
-0.10447253 -0.038429737 1.1014
-0.095080413 -0.036698289 1.1039165
-0.084655568 -0.035611659 1.1043332
-0.074941725 -0.034773104 1.1060951
-0.065266371 -0.032634795 1.1056665
-0.055712853 -0.03092929 1.1063333
-0.045653295 -0.030111749 1.108
-0.036911175 -0.030111747 1.108
0.14623229 -0.035421163 1.1052591
-0.083973266 -0.029921509 1.1010001
-0.073769622 -0.029094186 1.101
-0.064669073 -0.02676264 1.101
-0.054735482 -0.026798982 1.1024544
-0.04533774 -0.025658643 1.1031176
-0.035039298 -0.025286343 1.103652
-0.024293266 -0.023329901 1.1040499
-0.015368217 -0.022435401 1.1057142
-0.0048567331 -0.02039828 1.108
0.0035616041 -0.02039828 1.108
0.14748555 -0.025511196 1.1052221
0.15061338 -0.021607788 1.1036667
-0.013771337 -0.017640067 1.1025001
-0.0048393165 -0.016460644 1.1042665
0.0051085358 -0.015066832 1.1051363
0.014300341 -0.014218391 1.1066954
0.023925988 -0.013077805 1.107294
0.034515183 -0.012368483 1.1079999
0.044574015 -0.011764086 1.1079999
0.054071631 -0.010684813 1.108
0.065727793 -0.010684813 1.108
0.14796849 -0.017808022 1.108
0.15035491 -0.017459255 1.1065
0.015029698 -0.0081353411 1.101
0.024665974 -0.0076368023 1.1013637
0.035792615 -0.0073687877 1.1034615
0.046021629 -0.0058655008 1.1045789
0.055185504 -0.0048477212 1.1043599
0.064851068 -0.0048458283 1.1041198
0.072807699 -0.0037903024 1.1027691
0.068529911 0.00096520997 1.1010001
0.072263159 0.0050191558 1.1043636
0.07442604 0.014688441 1.1048748
0.083444305 0.016509052 1.1077691
0.074596889 0.024003869 1.1026665
0.084484495 0.023121996 1.1063683
0.093232624 0.02341038 1.1061429
0.049485028 0.084418789 1.1068001
0.055492353 0.083979517 1.1054345
0.060918689 0.083160602 1.103
0.05793028 0.091588728 1.1075001
0.061029151 0.091059364 1.105
-0.22214907 0.2524496 1.1033334
-0.21590573 0.25571114 1.1026469
-0.20945057 0.25385022 1.1010001
-0.22243838 0.26420629 1.108
-0.21679646 0.26228461 1.104
0.1842792 -0.46077791 1.1172857
0.18600714 -0.45450649 1.11615
0.1915587 -0.45476905 1.1120002
0.18686324 -0.44417131 1.1160002
0.19189614 -0.44625786 1.1120002
0.18697606 -0.43530384 1.1166667
0.192948 -0.43573901 1.1124737
0.18807764 -0.4257395 1.1164167
0.19224404 -0.4250139 1.113158
0.18933107 -0.41495878 1.1190001
0.1935547 -0.41493025 1.1142105
0.18933107 -0.40514889 1.1190001
0.19509414 -0.40504476 1.1136895
0.18933107 -0.39533895 1.1190001
0.19333972 -0.39504653 1.1136086
0.18933107 -0.38847202 1.1190001
0.19417416 -0.38532084 1.11585
0.18933107 -0.37277621 1.1190001
0.1943524 -0.37554219 1.1151428
