# .PCD v0.7 - Point Cloud Data file format
VERSION 0.7
FIELDS x y z
SIZE 4 4 4
TYPE F F F
COUNT 1 1 1
WIDTH 1464
HEIGHT 1
VIEWPOINT 0 0 0 1 0 0 0
POINTS 1464
DATA ascii
0.22525948 -0.46403459 1.7129999
0.23614705 -0.46441004 1.7130002
0.24435292 -0.46489272 1.7130002
0.25488451 -0.46430761 1.7130001
0.2658062 -0.46553627 1.7130002
0.27444115 -0.46441001 1.7130002
0.2808235 -0.46253282 1.7130001
0.33788925 -0.46403456 1.7130001
0.34289503 -0.46503571 1.7129999
0.35676813 -0.46360549 1.7130002
0.36406225 -0.46360549 1.7130002
0.37693426 -0.4655363 1.7130001
0.3859446 -0.46403462 1.7130002
0.39495501 -0.46403456 1.7130002
0.40096191 -0.46253282 1.7130001
0.19973008 -0.45202073 1.7130001
0.20573699 -0.45502418 1.7130002
0.21549825 -0.45502418 1.7130001
0.22465882 -0.45562488 1.7130001
0.23517092 -0.45682627 1.7130001
0.25529408 -0.45802766 1.7130001
0.28758129 -0.45502418 1.7130001
0.29283735 -0.45202073 1.7130001
0.35891348 -0.45652592 1.7130001
0.36406225 -0.45459512 1.7130002
0.37543249 -0.45352244 1.7130001
0.38680273 -0.45502415 1.7130002
0.39495501 -0.45502418 1.7130002
0.40396535 -0.4546487 1.7130002
0.19672662 -0.44263488 1.7130002
0.20546398 -0.4441025 1.7130001
0.21441367 -0.44401154 1.7130002
0.2958408 -0.44801614 1.7129999
0.30485117 -0.44200921 1.7129999
0.35691115 -0.44200921 1.7130002
0.36341867 -0.4445121 1.7130002
0.37865049 -0.44386849 1.7130002
0.38632002 -0.44413668 1.7130002
0.39570588 -0.44826639 1.7130001
0.40546706 -0.44751555 1.7130002
0.41297576 -0.44751555 1.7130001
0.42599073 -0.44301033 1.7129999
0.43249825 -0.44301033 1.7130002
0.1952249 -0.43400002 1.7129999
0.20536157 -0.43437538 1.7130002
0.21174394 -0.43550169 1.7130001
0.31536329 -0.43550169 1.7130001
0.32737714 -0.43399996 1.7130001
0.33188233 -0.43099651 1.7130001
0.35590997 -0.43399996 1.7130002
0.36492038 -0.43399996 1.7130002
0.37633353 -0.43369961 1.7130001
0.3859446 -0.43550169 1.7130002
0.3927024 -0.43324912 1.7130001
0.42799306 -0.43700343 1.7130001
0.4321979 -0.43460068 1.7130001
0.18771625 -0.42198613 1.7130001
0.19582559 -0.42559034 1.7130001
0.20393494 -0.42559028 1.7130001
0.33488578 -0.42649132 1.7130001
0.3408927 -0.42198613 1.7130001
0.35741174 -0.42498961 1.7130002
0.36454496 -0.42498958 1.7130002
0.37543252 -0.42799306 1.7130001
0.39581314 -0.42541865 1.7130002
0.40096191 -0.42348784 1.7130001
0.42799306 -0.42348784 1.7130001
0.43099651 -0.42498958 1.7129999
0.19852871 -0.41657987 1.7130001
0.20273356 -0.41597924 1.7129999
0.34509754 -0.4171806 1.7130001
0.35691118 -0.41647983 1.7130002
0.36341864 -0.41898265 1.7130001
0.40396535 -0.41898265 1.7130001
0.42619094 -0.41657987 1.7130001
0.19872893 -0.40897116 1.7129999
0.20333424 -0.40456605 1.7130001
0.40997228 -0.40997228 1.7130001
0.41597921 -0.40997228 1.7130001
0.42198613 -0.40997228 1.7130001
0.19973008 -0.39345324 1.7130001
0.20487888 -0.39538407 1.7130002
0.19758478 -0.38551551 1.7130002
0.20536157 -0.38556919 1.7130002
0.19552524 -0.37513214 1.7129998
0.20513633 -0.37513214 1.7130001
0.21324566 -0.3709273 1.7130001
0.19772778 -0.36592153 1.7130002
0.20573699 -0.36492035 1.7130002
0.21324566 -0.36191693 1.7130001
0.20723873 -0.3566609 1.7130001
0.21174394 -0.35590997 1.7129999
0.20874047 -0.34840137 1.7130001
0.21234462 -0.34449685 1.7130001
0.20874047 -0.33788925 1.7130001
0.21388927 -0.33445671 1.7130002
0.22175546 -0.33288348 1.7129999
0.2147474 -0.3258754 1.7130002
0.22332869 -0.32544634 1.7130002
-0.13465512 -0.31886733 1.7129999
-0.12464359 -0.31836677 1.7130001
-0.11563321 -0.31586388 1.7129999
-0.10962629 -0.31386158 1.7130001
0.21674971 -0.31636444 1.7130002
0.22525948 -0.31536326 1.7129998
0.23426989 -0.31235984 1.7130001
0.21775085 -0.30785465 1.7130001
0.22616053 -0.30515152 1.7130001
0.2342699 -0.30485117 1.7130002
0.22856331 -0.2964415 1.7130001
0.2342699 -0.29584083 1.7130002
-0.10361937 -0.28983387 1.7129999
0.22976469 -0.28983387 1.7130001
0.23577161 -0.28532869 1.7130001
0.24177852 -0.2808235 1.7130001
0.23727334 -0.2748166 1.7130002
0.24252939 -0.27406573 1.7130001
0.2375737 -0.26640689 1.7130001
0.24392386 -0.26537713 1.7130002
0.23877507 -0.2597993 1.7130001
0.24505505 -0.25570369 1.7130001
0.25199029 -0.25319165 1.7130001
0.24678428 -0.24678428 1.7129999
0.25341696 -0.24440655 1.7130002
0.25779697 -0.23677278 1.7130002
0.26380387 -0.2337693 1.7129999
0.26880968 -0.22826296 1.7130001
0.27406573 -0.2230069 1.7130001
0.27782005 -0.21775085 1.7130001
0.28532869 -0.21324566 1.7130001
0.28983387 -0.20874047 1.7130001
0.2958408 -0.20473586 1.7129999
0.30485117 -0.20273355 1.7130001
0.30485117 -0.19872893 1.7129999
0.31386158 -0.1929723 1.7130001
0.31886733 -0.18671508 1.7129999
0.32512456 -0.1824602 1.7130001
0.33188233 -0.18170933 1.7130001
0.32687655 -0.17770471 1.7129999
0.33488575 -0.17570241 1.7130002
0.3408927 -0.17870587 1.7130001
0.32787773 -0.16268742 1.7129999
0.33428508 -0.16579099 1.7130001
0.32737714 -0.15467818 1.7130002
0.3326332 -0.15542905 1.7130001
0.32767749 -0.1462685 1.7130001
0.33188233 -0.14566781 1.7129999
0.32614845 -0.13474613 1.7130001
0.33248302 -0.13605675 1.7130001
0.31986848 -0.12164013 1.7130001
0.3258754 -0.12464358 1.7130002
0.33188233 -0.12464359 1.7129999
0.31986848 -0.11563321 1.7129999
0.3258754 -0.11563321 1.7130002
0.3326332 -0.11488234 1.7130001
-0.23727334 -0.10061591 1.7130001
0.31986848 -0.10812455 1.7130001
0.3258754 -0.10962629 1.7129999
-0.24328025 -0.094608992 1.7130002
-0.23614706 -0.094233565 1.7130002
-0.22626065 -0.092606694 1.7130002
-0.20573699 -0.091605522 1.7129999
-0.19672662 -0.091605529 1.7130001
-0.2252595 -0.088602066 1.7130001
-0.21474738 -0.088602066 1.7129999
-0.20573701 -0.088602066 1.7129999
-0.19522491 -0.088602066 1.7130001
-0.18428372 -0.086456738 1.7130002
-0.17570242 -0.085598618 1.7130002
-0.16819376 -0.084096879 1.7130001
-0.18170933 -0.079591691 1.7130001
-0.17495154 -0.078840822 1.7130001
-0.16669202 -0.075086497 1.7130002
-0.16218683 -0.066076115 1.7130001
-0.15553631 -0.064145327 1.7130002
-0.14867127 -0.061570931 1.7130001
-0.15167473 -0.058567468 1.7130001
-0.14652593 -0.055134941 1.7130002
-0.14366549 -0.048555937 1.7129999
-0.13703287 -0.045427334 1.7130002
-0.12514417 -0.045552477 1.7130002
-0.11520415 -0.043979235 1.7130002
-0.10533564 -0.041833911 1.7130002
-0.094608992 -0.040546712 1.7129999
-0.10512111 -0.037543248 1.7130001
-0.094008289 -0.036341868 1.7130001
-0.085598603 -0.034539789 1.7130001
-0.076588228 -0.032287192 1.7130001
-0.064574383 -0.03153633 1.7129999
-0.05706574 -0.03153633 1.7130001
-0.04955709 -0.03153633 1.7130001
-0.073584773 -0.02853287 1.7130001
-0.064574391 -0.02853287 1.7129999
-0.055564005 -0.02853287 1.7129999
-0.045051903 -0.02703114 1.7130002
-0.034539789 -0.023527103 1.7129999
-0.02853287 -0.022525949 1.7130001
0.35591 -0.025529407 1.7130002
0.36341864 -0.022525949 1.7130001
-0.024027679 -0.01952249 1.7130001
-0.014373703 -0.0143737 1.7130002
0.32787773 -0.011513263 1.7129999
0.33488581 -0.0150173 1.7130001
0.35691115 -0.017520184 1.7130002
0.36391923 -0.014516722 1.7130002
-0.0037543247 -0.0045051901 1.7130001
0.0045051901 -0.003754325 1.7130001
0.0150173 -0.003754325 1.7130001
0.02703114 -0.00750865 1.7130001
0.035290655 -0.0060069198 1.7130001
0.045352243 -0.0033038058 1.7130001
0.055564012 -0.0015017301 1.7129999
0.063072659 -0.0015017299 1.7130001
0.3258754 -0.00750865 1.7130001
0.36416951 -0.0052560549 1.7130001
0.04955709 0.0015017299 1.7130001
0.055564009 0.0015017299 1.7130001
0.065325253 0.002252595 1.7130001
0.073155709 0.0049342555 1.7130002
0.088602066 0.00750865 1.7130001
0.094608992 0.0067577851 1.7130001
0.1051211 0.0065074968 1.7130002
0.11503252 0.0063072657 1.7130001
0.12464359 0.0067577851 1.7130001
0.13515571 0.0060069198 1.7130001
0.14366551 0.0065074968 1.7129999
0.18771625 0.00750865 1.7130001
0.19272202 0.0065074968 1.7129999
0.31311071 0.0067577851 1.7130001
0.36341864 0.0030034599 1.7130001
0.11863667 0.01051211 1.7130001
0.12464359 0.01051211 1.7129999
0.13515569 0.01051211 1.7130001
0.14641866 0.012764705 1.7130001
0.15510726 0.014373702 1.7130002
0.16535716 0.013181854 1.7130002
0.17527334 0.01265744 1.7130002
0.18471278 0.013515569 1.7130002
0.1952249 0.013515569 1.7129999
0.20273355 0.01201384 1.7130001
0.31686506 0.013515572 1.7130002
0.32512453 0.018771626 1.7130001
0.38794693 0.018521337 1.7129999
0.19672662 0.024027679 1.7130001
0.32887888 0.022525949 1.7130001
0.33548647 0.023727335 1.7130001
0.37893653 0.027531719 1.7129999
0.38444287 0.024027679 1.7130001
0.19672664 0.03153633 1.7130001
0.37743482 0.035540942 1.7130002
0.3859446 0.037543248 1.7130001
0.37350172 0.044408299 1.7130002
-0.0045051901 0.36792386 1.7130001
-0.025529409 0.37393078 1.7129999
-0.014266435 0.37393075 1.7130002
-0.0041297576 0.37430617 1.7130002
0.0033038058 0.37272939 1.7130001
-0.045552477 0.47604844 1.7129999
0.22795261 -0.49062648 1.7220001
0.2339911 -0.49062648 1.7220001
0.24531326 -0.49138129 1.7220001
0.31852981 -0.49817461 1.7220001
0.32423285 -0.49498761 1.7220001
0.33060679 -0.49213612 1.7220001
0.39703006 -0.49062648 1.7220001
0.40393117 -0.49192044 1.7220001
0.20530832 -0.48156878 1.7220001
0.21486925 -0.48358163 1.7220001
0.2259398 -0.48458803 1.7220001
0.2339911 -0.48760727 1.7220001
0.24455845 -0.48760727 1.7220001
0.25588056 -0.48458803 1.7220001
0.26116425 -0.48156878 1.7220001
0.32758754 -0.48458803 1.7220001
0.33453175 -0.48398423 1.7220001
0.34268373 -0.48156878 1.7220001
0.39401081 -0.48458803 1.7220001
0.40155891 -0.48458803 1.7220001
0.20489658 -0.47580478 1.7220001
0.21587567 -0.47854957 1.7220001
0.22493339 -0.47854954 1.7220001
0.26418349 -0.47754312 1.7220001
0.27173162 -0.4755303 1.7220001
0.28380856 -0.47251105 1.7220001
0.32758754 -0.47402066 1.7220001
0.33472392 -0.47580478 1.7220001
0.34469655 -0.47754312 1.7220001
0.35777995 -0.47251105 1.7220001
0.39401081 -0.4759616 1.7220001
0.40080413 -0.4762851 1.7220001
0.1962506 -0.46043411 1.7220001
0.20207341 -0.46560988 1.7220001
0.28531817 -0.46586871 1.7220001
0.32607794 -0.46949181 1.7220001
0.335484 -0.46531135 1.7220001
0.34603846 -0.46412426 1.7220001
0.35362849 -0.46458554 1.7220001
0.19511838 -0.45401818 1.7220001
0.20077945 -0.45741487 1.7220001
0.2958855 -0.45590526 1.7220001
0.3024272 -0.4523828 1.7220001
0.33664525 -0.45439562 1.7220001
0.34570298 -0.45439562 1.7220001
0.35476071 -0.45439562 1.7220001
0.36079916 -0.45288599 1.7220001
0.1874948 -0.44473404 1.7220001
0.19474098 -0.44714946 1.7220001
0.30796248 -0.44533789 1.7220001
0.31249133 -0.44231865 1.7220001
0.32607794 -0.44231865 1.7220001
0.33527288 -0.44506341 1.7220001
0.34570298 -0.44533789 1.7220001
0.35375428 -0.44634429 1.7220001
0.38797233 -0.44533789 1.7220001
0.39487344 -0.44533792 1.7220001
0.40457818 -0.44382825 1.7220001
0.41557679 -0.44447523 1.7220001
0.42420325 -0.44496047 1.7220001
0.4302417 -0.44835714 1.7220001
0.18628709 -0.43416667 1.7220001
0.31852981 -0.4392994 1.7220001
0.3245683 -0.4377898 1.7220001
0.33702263 -0.43665758 1.7220001
0.34570295 -0.43490779 1.7220001
0.35234529 -0.43386477 1.7220001
0.39703006 -0.4377898 1.7220001
0.404075 -0.43577698 1.7220001
0.41514546 -0.43714279 1.7220001
0.4254972 -0.43628019 1.7220001
0.4302417 -0.43326095 1.7220001
0.18643808 -0.42571285 1.7220001
0.19323136 -0.42269361 1.7220001
0.34670937 -0.42520964 1.7220001
0.35325107 -0.42420319 1.7220001
0.40759739 -0.42420322 1.7220001
0.41600814 -0.42377189 1.7220001
0.42382583 -0.42458063 1.7220001
0.18870251 -0.41514549 1.7220001
0.19387834 -0.41514549 1.7220001
0.40810061 -0.41715834 1.7220001
0.41514552 -0.41665509 1.7220001
0.42269358 -0.41665512 1.7220001
0.18870249 -0.40910703 1.7220001
0.19534484 -0.40518197 1.7220001
0.20077945 -0.40306854 1.7220001
0.19594868 -0.39461464 1.7220001
0.18769608 -0.38294029 1.7220001
0.19247656 -0.38570791 1.7220001
0.18654589 -0.37632671 1.7220001
0.1876961 -0.36885047 1.7220001
0.19474098 -0.36468107 1.7220001
0.2037987 -0.36079916 1.7220001
0.19675381 -0.35677353 1.7220001
0.2041761 -0.35513809 1.7220001
0.20832756 -0.34494817 1.7220001
0.20811191 -0.33448866 1.7220001
-0.14492351 -0.32154906 1.7220001
-0.13435617 -0.32305866 1.7220001
-0.12529846 -0.32255545 1.7220001
-0.11775036 -0.32154906 1.7220001
0.20983718 -0.3245683 1.7220001
0.21285641 -0.32154906 1.7220001
-0.11171187 -0.31852981 1.7220001
-0.1056734 -0.31702018 1.7220001
0.21406412 -0.31490672 1.7220001
0.2164795 -0.30705673 1.7220001
0.22266895 -0.30267882 1.7220001
0.22614107 -0.29377204 1.7220001
0.22795261 -0.2868278 1.7220001
0.23172666 -0.28456336 1.7220001
0.23298468 -0.27424765 1.7220001
0.23449431 -0.26418349 1.7220001
0.23701034 -0.2566354 1.7220001
0.24078438 -0.25437096 1.7220001
0.24606806 -0.24455844 1.7220001
0.25210655 -0.24002957 1.7220001
0.25613222 -0.23499751 1.7220001
0.26418349 -0.23097186 1.7220001
0.26720273 -0.22795261 1.7220001
0.27173162 -0.22342376 1.7220001
0.27626047 -0.2188949 1.7220001
0.28380856 -0.21436603 1.7220001
0.28833741 -0.20983718 1.7220001
0.2943759 -0.20480512 1.7220001
0.30041438 -0.20077945 1.7220001
0.30494326 -0.19700542 1.7220001
0.31249133 -0.19323136 1.7220001
0.31601378 -0.18568325 1.7220001
0.32154906 -0.18266402 1.7220001
0.3168045 -0.17576291 1.7220001
0.32396445 -0.17451207 1.7220001
0.33060679 -0.17360629 1.7220001
0.3162654 -0.16454858 1.7220001
0.32419088 -0.16454858 1.7220001
0.33060679 -0.16756782 1.7220001
0.31732211 -0.1560947 1.7220001
0.32305866 -0.15549086 1.7220001
0.31702018 -0.14492351 1.7220001
0.32356188 -0.14475578 1.7220001
0.30494326 -0.13360137 1.7220001
0.31551057 -0.13435617 1.7220001
0.32154906 -0.13435619 1.7220001
0.30645287 -0.12680808 1.7220001
0.3155106 -0.12529844 1.7220001
0.32154906 -0.12680808 1.7220001
0.31578505 -0.11514283 1.7220001
-0.23197828 -0.10215095 1.7220001
-0.22568819 -0.10189936 1.7220001
-0.21436603 -0.10114454 1.7220001
-0.20681794 -0.10215095 1.7220001
-0.18266402 -0.10114454 1.7220001
-0.17662555 -0.10114454 1.7220001
0.31702018 -0.10718302 1.7220001
-0.23248148 -0.098125301 1.7220001
-0.22432955 -0.096917607 1.7220001
-0.21587564 -0.095106058 1.7220001
-0.20509265 -0.096400015 1.7220001
-0.19517231 -0.095106058 1.7220001
-0.18568325 -0.09510605 1.7220001
-0.17511593 -0.095106043 1.7220001
-0.1675678 -0.095106065 1.7220001
-0.17058706 -0.089067578 1.7220001
-0.16454858 -0.083632946 1.7220001
-0.16303895 -0.075480998 1.7220001
-0.1563535 -0.073540054 1.7220001
-0.14945237 -0.07095214 1.7220001
-0.15247162 -0.066423282 1.7220001
-0.14567833 -0.064536259 1.7220001
-0.14160235 -0.056459792 1.7220001
-0.13435617 -0.055478536 1.7220001
-0.12650615 -0.054648243 1.7220001
-0.11473112 -0.052836701 1.7220001
-0.10718302 -0.052836701 1.7220001
-0.13435619 -0.049817462 1.7220001
-0.12378883 -0.049817462 1.7220001
-0.11382534 -0.049213611 1.7220001
-0.10416378 -0.047660861 1.7220001
-0.095483467 -0.046420816 1.7220001
-0.08484064 -0.043175131 1.7220001
-0.073971376 -0.040759739 1.7220001
-0.06491366 -0.040759739 1.7220001
-0.058875181 -0.040759739 1.7220001
-0.083029099 -0.037740499 1.7220001
-0.073971376 -0.035583895 1.7220001
-0.06491366 -0.036230881 1.7220001
-0.055424623 -0.035583895 1.7220001
-0.045456335 -0.034385785 1.7220001
-0.034721259 -0.031702019 1.7220001
-0.02868278 -0.031702019 1.7220001
-0.040759739 -0.02868278 1.7220001
-0.034117408 -0.027475083 1.7220001
-0.02566354 -0.02566354 1.7220001
-0.016605821 -0.023399111 1.7220001
0.34872222 -0.0226443 1.7220001
0.35174146 -0.02415392 1.7220001
-0.014190428 -0.019021211 1.7220001
-0.00603848 -0.01056734 1.7220001
0.02717316 -0.01056734 1.7220001
0.33740005 -0.01132215 1.7220001
0.34570298 -0.0150962 1.7220001
0.35408977 -0.013922051 1.7220001
0.36079916 -0.01056734 1.7220001
-0.00301924 -0.0075480998 1.7220001
0.00150962 -0.0075480998 1.7220001
0.01585101 -0.0067932899 1.7220001
0.0226443 -0.0075480998 1.7220001
0.034721259 -0.0075480998 1.7220001
0.0452886 -0.0067932899 1.7220001
0.055855941 -0.0045288601 1.7220001
0.065668471 -0.0037740502 1.7220001
0.073367529 -0.0027173162 1.7220001
0.080009863 -0.00150962 1.7220001
0.12680808 -0.00150962 1.7220001
0.13133694 -0.00150962 1.7220001
0.14039466 -0.00150962 1.7220001
0.33060679 -0.0075480998 1.7220001
0.35576713 -0.0055352733 1.7220001
0.36200687 -0.003925012 1.7220001
0.076990619 0.00301924 1.7220001
0.083891742 0.0040975399 1.7220001
0.095106065 0.0027173159 1.7220001
0.10476764 0.0027173159 1.7220001
0.11563689 0.002113468 1.7220001
0.12529847 0.0027173162 1.7220001
0.13521883 0.0040975399 1.7220001
0.14592993 0.0035224466 1.7220001
0.15549085 0.006340404 1.7220001
0.16379377 0.0067932899 1.7220001
0.17421015 0.0069442517 1.7220001
0.18568325 0.0050320667 1.7220001
0.19323136 0.0045288601 1.7220001
0.2037987 0.00603848 1.7220001
0.31702018 0.00301924 1.7220001
0.32275674 0.0051327078 1.7220001
0.36381841 0.00150962 1.7220001
0.14945237 0.01056734 1.7220001
0.15398124 0.01056734 1.7220001
0.16454858 0.01056734 1.7220001
0.32607794 0.013586581 1.7220001
0.33513564 0.018870249 1.7220001
0.39552045 0.01811544 1.7220001
0.4000493 0.01811544 1.7220001
0.34570298 0.022644302 1.7220001
0.38495311 0.026669955 1.7220001
0.39401078 0.024455843 1.7220001
0.4000493 0.0226443 1.7220001
0.38545632 0.033714846 1.7220001
0.37891462 0.0452886 1.7220001
0.38268867 0.043024167 1.7220001
0.011573753 0.35476074 1.7220001
-0.024657125 0.36784407 1.7220001
-0.0150962 0.36683765 1.7220001
-0.00528367 0.36834729 1.7220001
0.0045288601 0.36721504 1.7220001
-0.02566354 0.37287614 1.7220001
-0.01811544 0.37287614 1.7220001
-0.0075480998 0.37287614 1.7220001
-0.049817462 0.46345332 1.7220001
0.14584607 -0.49445376 1.7390002
0.16464852 -0.49547008 1.7390002
0.17532018 -0.49547011 1.7390002
0.1844673 -0.49547011 1.7390002
0.19498704 -0.49509254 1.737667
0.20518257 -0.49395365 1.7336669
0.21451673 -0.49446175 1.7354445
0.22473997 -0.49526557 1.7353637
0.23521405 -0.49774328 1.7310001
0.24475269 -0.49709293 1.7310001
0.255238 -0.49376056 1.733
0.26069349 -0.49242103 1.7390001
0.29728204 -0.49242103 1.7390001
0.30338013 -0.49547011 1.7390002
0.31558827 -0.49615934 1.7375457
0.32271591 -0.49293414 1.7336668
0.40821019 -0.49015573 1.7310001
0.13873163 -0.48022485 1.7390001
0.14482974 -0.4847984 1.7390002
0.1646485 -0.48479834 1.7390002
0.17532016 -0.4852142 1.7390002
0.18508999 -0.48416114 1.7367145
0.19550806 -0.48528829 1.7342001
0.20547085 -0.48590669 1.7310002
0.21093389 -0.48712072 1.7310001
0.26556426 -0.48408568 1.7310001
0.27593872 -0.48327389 1.739
0.28203681 -0.48327389 1.7390001
0.29524934 -0.48835564 1.739
0.30381569 -0.48719409 1.7390002
0.31595746 -0.48670408 1.7390002
0.32496056 -0.484337 1.7377694
0.13796937 -0.47412676 1.7390001
0.14429696 -0.47468632 1.7378572
0.15397686 -0.47260225 1.7390002
0.16506428 -0.47384956 1.7390002
0.17523953 -0.47451562 1.7382002
0.18490319 -0.47429609 1.7374003
0.19460891 -0.4751319 1.7343336
0.2922003 -0.47209406 1.739
0.30414239 -0.47183996 1.7390001
0.31740573 -0.47351694 1.7390001
0.32271123 -0.47368431 1.7336668
0.39910513 -0.47801566 1.7310001
0.13720711 -0.46497965 1.7390002
0.14470589 -0.46603271 1.733
0.15397684 -0.46497959 1.7390002
0.16464852 -0.46497965 1.7390002
0.17493904 -0.46536076 1.7390002
0.18378727 -0.46523961 1.7367144
0.19426747 -0.46668974 1.7327778
0.28984439 -0.46587557 1.7310001
0.29541913 -0.46596938 1.7370002
0.30338013 -0.46650419 1.7390002
0.31679595 -0.46375999 1.7390001
0.3250868 -0.46536538 1.7334616
0.3323347 -0.46435806 1.7310001
0.12958448 -0.45888153 1.7390001
0.13606371 -0.45583248 1.7390002
0.14427216 -0.45560363 1.7323337
0.15397686 -0.45583248 1.7390002
0.16464852 -0.45583248 1.7390002
0.1752162 -0.45539242 1.7350003
0.18525544 -0.45555353 1.7321432
0.19272377 -0.45980552 1.7310001
0.29894948 -0.45980552 1.7310001
0.3059999 -0.45696601 1.7336668
0.31541654 -0.45560107 1.7381113
0.32581791 -0.45550132 1.7344288
0.33309346 -0.45525301 1.7310001
0.13568258 -0.44516087 1.7390002
0.14406671 -0.44408342 1.7331821
0.15397686 -0.44516087 1.7390002
0.16464852 -0.44516078 1.7390002
0.17459923 -0.44445565 1.7346363
0.1821012 -0.44463041 1.7310001
0.3166365 -0.44734344 1.7336668
0.32451281 -0.4471094 1.7355716
0.33691967 -0.44058725 1.7390001
0.13720711 -0.43448913 1.7390002
0.14460295 -0.43483457 1.7363335
0.15397686 -0.4348703 1.7390002
0.16464853 -0.43448916 1.7390002
0.17538032 -0.43449372 1.7366002
0.18152452 -0.43571511 1.7342001
0.33840472 -0.43552536 1.7310001
0.3475098 -0.43552536 1.7310001
0.40821019 -0.43552536 1.7310001
0.41367322 -0.43370438 1.7310002
0.42338532 -0.43465826 1.7310001
0.13655373 -0.42577761 1.7390002
0.14506659 -0.42575336 1.7382002
0.1570259 -0.42839104 1.7390001
0.16499351 -0.4251641 1.7382729
0.17486742 -0.42425647 1.7345557
0.18361872 -0.42338526 1.7310001
0.41326857 -0.42844367 1.7310001
0.13568258 -0.41467038 1.7390002
0.14482974 -0.41467038 1.7390002
0.15600955 -0.41212949 1.739
0.16484962 -0.41451758 1.7379336
0.17444789 -0.4142448 1.7334001
0.18361871 -0.41428021 1.7310001
0.13771528 -0.40603137 1.739
0.14482972 -0.4039987 1.7390002
0.15519647 -0.40338889 1.7390001
0.16506429 -0.40372145 1.7390002
0.17515361 -0.40408602 1.7346367
0.18485023 -0.40485016 1.7316157
0.19272377 -0.40365767 1.7310001
0.14521086 -0.39523265 1.7390002
0.15550138 -0.39485154 1.7390002
0.16464852 -0.39485154 1.7390002
0.17532018 -0.39485154 1.7390002
0.185551 -0.39449218 1.732067
0.19272377 -0.39607009 1.7310001
0.14787877 -0.3857044 1.739
0.16556324 -0.38600931 1.7390001
0.17504822 -0.38511604 1.7363335
0.18260704 -0.3849417 1.7310001
0.14787877 -0.37655726 1.7390001
0.16922209 -0.3780818 1.7390001
0.17576587 -0.37529469 1.7374003
0.18200363 -0.3742013 1.732143
0.17619133 -0.36392546 1.7390002
0.18494996 -0.36507341 1.7331818
0.19272377 -0.36420238 1.7310001
-0.13568258 -0.35216489 1.7390001
0.17532018 -0.35521394 1.7390002
0.18562011 -0.35603008 1.7355717
0.19481197 -0.35406587 1.7334001
0.20284051 -0.35155645 1.7310001
-0.14297909 -0.34222877 1.7350001
-0.13497749 -0.34451738 1.7355716
-0.12723826 -0.34518036 1.7367144
0.17684469 -0.34759134 1.7390001
0.18446732 -0.3460668 1.7390002
0.19506241 -0.34593296 1.7383336
0.20399669 -0.34490839 1.7310001
-0.14370796 -0.33487472 1.7336668
-0.13554232 -0.33657524 1.7372224
-0.12613197 -0.33607143 1.7381113
-0.11433925 -0.33310837 1.7390001
-0.10580192 -0.3320412 1.7390001
0.18751638 -0.33691967 1.739
0.19513898 -0.33539513 1.7390002
0.20352933 -0.33516282 1.7344286
-0.15124518 -0.32727632 1.7310001
-0.14477044 -0.32747868 1.7310002
-0.13566539 -0.32808563 1.7310002
-0.12534633 -0.32808566 1.7310002
-0.11419262 -0.32626465 1.7310001
-0.10434174 -0.32431218 1.7321428
0.1960537 -0.32502839 1.7390001
0.20565237 -0.32514811 1.7353638
0.21093389 -0.3201946 1.7310001
0.19666351 -0.31557634 1.7390002
0.20549038 -0.31509238 1.7363335
0.21093388 -0.31412458 1.7310001
0.19666351 -0.30490467 1.7390002
0.20573057 -0.30478719 1.7383336
0.21355827 -0.30377832 1.7326
0.22003895 -0.30198449 1.7310001
0.19818804 -0.29728204 1.7390001
0.20619179 -0.29461411 1.7390002
0.21496181 -0.29443252 1.7366002
0.22148494 -0.29523867 1.732143
0.2088597 -0.2881349 1.7390001
0.21495777 -0.28508583 1.7390002
0.22463459 -0.28497809 1.7340772
0.23217903 -0.28073934 1.7310001
0.21597415 -0.27695507 1.7390002
0.22510345 -0.27530402 1.7350001
0.23217903 -0.27466932 1.7310001
0.22599633 -0.26747122 1.7360001
0.23119102 -0.26313239 1.7350001
0.23567994 -0.25609398 1.7344286
0.24128409 -0.25038916 1.7310001
0.24488017 -0.24412492 1.7350001
0.24849731 -0.23935015 1.7390001
0.25479126 -0.23481078 1.7344285
0.262218 -0.23020302 1.7390001
0.26688832 -0.22629511 1.7363335
0.27306443 -0.22138959 1.7336668
0.27797142 -0.21699049 1.739
0.28341377 -0.21344702 1.7350001
0.28687206 -0.2065955 1.7360002
0.29436135 -0.20262237 1.7326
0.2881349 -0.19513899 1.7390001
0.29471239 -0.19531307 1.7367146
0.30447304 -0.19335477 1.7336667
0.31108955 -0.19272377 1.7310001
0.28610221 -0.18345095 1.7390002
0.29423299 -0.1844673 1.7390002
0.30410314 -0.18484958 1.7344288
0.31239027 -0.18448587 1.7310001
0.27898777 -0.17379566 1.7390001
0.28508583 -0.17532018 1.7390002
0.29408106 -0.17523211 1.7381114
0.30420333 -0.17491691 1.7350001
0.31260705 -0.17451364 1.7310001
0.3201946 -0.17147863 1.7310001
0.27898777 -0.16464852 1.7390001
0.28508586 -0.1646485 1.7390002
0.2938911 -0.1644574 1.7370001
0.3043035 -0.16497424 1.7355717
0.31260705 -0.1654086 1.7310001
0.3201946 -0.16540858 1.7310001
0.27898777 -0.15397686 1.739
0.28508586 -0.15397686 1.7390002
0.2939291 -0.15381946 1.7372224
0.30410317 -0.15443924 1.734429
0.31311288 -0.15461741 1.7310001
0.27898777 -0.14482972 1.739
0.28508583 -0.14482972 1.7390002
0.2948446 -0.14438672 1.7336669
0.30517769 -0.14423904 1.7318889
0.31260705 -0.14416344 1.7310001
0.27898777 -0.13720711 1.7390001
0.28508586 -0.13568257 1.7390002
0.2948446 -0.13526529 1.7336668
0.30501953 -0.13505839 1.7310001
0.31108955 -0.13657591 1.7310001
0.28711855 -0.12856813 1.739
0.29536375 -0.12549697 1.7367146
0.30443347 -0.12488445 1.7320001
0.31108955 -0.12291831 1.7310001
-0.22105588 -0.1112902 1.7390001
-0.21395183 -0.11192447 1.737
-0.20581065 -0.11129019 1.739
-0.18446732 -0.1112902 1.7390001
0.29606241 -0.11494906 1.7390001
0.30445772 -0.11527085 1.7347336
0.31169653 -0.11442025 1.7310002
-0.23270854 -0.10647467 1.7350001
-0.22293696 -0.10571761 1.7332859
-0.21457592 -0.1065292 1.7310002
-0.20536333 -0.10514981 1.7320001
-0.19582054 -0.10458916 1.7345557
-0.1851829 -0.10533479 1.735
-0.1748161 -0.1052743 1.7340001
-0.16807058 -0.10419139 1.7350001
0.29728204 -0.1051921 1.739
0.30448887 -0.1054693 1.7390002
0.31332591 -0.10647117 1.7350001
-0.20789887 -0.098638147 1.7310001
-0.19272377 -0.098638147 1.7310001
-0.16322021 -0.096263915 1.7360002
-0.15423381 -0.095319875 1.7381113
-0.14584607 -0.095028616 1.7390002
0.29728204 -0.09604498 1.739
0.30299899 -0.0964261 1.7390002
-0.16313232 -0.087256826 1.7310001
-0.15491883 -0.08505813 1.7325004
-0.14460413 -0.0852459 1.7363335
-0.13720711 -0.083848782 1.7390002
-0.12958448 -0.080799736 1.7390001
0.29118395 -0.089946873 1.7390001
-0.15175101 -0.075875498 1.7310001
-0.14416344 -0.074357986 1.7310001
-0.1353327 -0.074513838 1.7345557
-0.12606418 -0.073949262 1.7372223
-0.14214011 -0.067276277 1.7310001
-0.13505839 -0.06525293 1.7310001
-0.12545852 -0.065619551 1.7326
-0.1151547 -0.065117925 1.7346364
-0.1051921 -0.062505454 1.739
-0.099094018 -0.062505454 1.7390001
-0.13505839 -0.05918289 1.7310001
-0.12443582 -0.057665382 1.7310001
-0.11533076 -0.057665378 1.7310001
-0.10432881 -0.056527242 1.7310001
-0.095386595 -0.055595577 1.7326
-0.085126966 -0.054731179 1.7340003
-0.074909195 -0.052859712 1.735
-0.0655545 -0.051833794 1.7390002
-0.054882839 -0.051833794 1.7390002
-0.044820987 -0.05152889 1.7390001
-0.038113084 -0.050309271 1.7390001
-0.083463043 -0.047042809 1.7310001
-0.074357986 -0.045525298 1.7310001
-0.06525293 -0.045525301 1.7310001
-0.054216493 -0.044283703 1.7310002
-0.044051427 -0.044056106 1.732778
-0.035010267 -0.044148058 1.7363334
-0.025880827 -0.043285914 1.7367144
-0.015887579 -0.042441811 1.7378572
-0.042490281 -0.037937749 1.7310001
-0.034902733 -0.036420237 1.7310001
-0.025418293 -0.035282105 1.7310001
-0.015179191 -0.03491734 1.7316669
-0.0045735701 -0.033539515 1.7390002
0.0039637606 -0.033234607 1.7390001
-0.022762651 -0.028832689 1.7310001
-0.014416345 -0.026935801 1.7310001
-0.0045696739 -0.025905209 1.7381114
0.0045735701 -0.025916897 1.7390002
0.014330517 -0.025611991 1.7390001
0.3475098 -0.022762651 1.7310001
-0.0042490279 -0.016085606 1.7310002
0.0045554521 -0.015182697 1.7316669
0.015215864 -0.015221125 1.7355003
0.025187902 -0.015726913 1.7354445
0.035015646 -0.01431579 1.7366002
0.044143379 -0.013704345 1.7363334
0.054777056 -0.013699085 1.7356669
0.065453976 -0.013704345 1.7363335
0.074218974 -0.012842539 1.7378572
0.085203916 -0.012704361 1.7390002
0.09604498 -0.012196186 1.7390002
0.1051921 -0.012196187 1.7390002
0.11433925 -0.012196186 1.7390002
0.12399456 -0.011688012 1.7390002
0.13629238 -0.011891282 1.7390001
0.14482972 -0.012196186 1.7390002
0.17532018 -0.010671663 1.7390001
0.34649813 -0.01669261 1.7310001
0.35054481 -0.01062257 1.7310001
0.0060700402 -0.0075875497 1.7310001
0.01062257 -0.0075875497 1.7310001
0.054630361 -0.0075875497 1.7310001
0.06525293 -0.0075875497 1.7310001
0.075116739 -0.0068287952 1.7310001
0.085503452 -0.0048380047 1.7331818
0.095699757 -0.004560323 1.7327778
0.10470819 -0.0045525301 1.7310001
0.11533075 -0.0045525297 1.7310003
0.12551975 -0.005419679 1.7310001
0.13551579 -0.0049362904 1.732
0.14471115 -0.0049406742 1.733
0.15457259 -0.0038952248 1.7381113
0.16499354 -0.0048501189 1.7382729
0.17514093 -0.0045720115 1.7372223
0.18437147 -0.004572791 1.7381113
0.1928522 -0.002286785 1.7390001
0.20733517 -0.0015245234 1.7390001
0.32828155 -0.0035502079 1.7363335
0.33576179 -0.0041784123 1.7350001
0.34500703 -0.0045564268 1.7336668
0.35256815 -0.0035408568 1.7310001
0.088015579 0.00151751 1.7310001
0.15508953 0.002124514 1.7310002
0.1660156 0.0027315181 1.7310002
0.17512064 0.0027315181 1.7310002
0.18285996 0.0022762651 1.7310001
0.19767986 0.0035572213 1.739
0.20533724 0.0045630499 1.7350001
0.32853609 0.0045560366 1.7350001
0.33561295 0.0045735701 1.7390002
0.3448472 0.0033539515 1.7390001
0.35612041 0.0038086786 1.7360002
0.36241749 0.0045718169 1.7370002
0.32929966 0.01062257 1.7310001
0.33633208 0.013298376 1.7340001
0.34517837 0.016310133 1.7367145
0.35521397 0.01372071 1.739
0.3956686 0.026853761 1.7336668
0.39404675 0.032879382 1.7310001
0.19666351 0.041162129 1.7390001
-0.017470652 0.32739687 1.733
0.019818803 0.32472348 1.7390001
-0.022867849 0.33844417 1.7390001
-0.016412269 0.33657524 1.7372224
-0.022762651 0.34295726 1.7310001
-0.01520666 0.34527078 1.7350003
-0.0045735696 0.34693795 1.7390002
0.0015245234 0.34911585 1.7390001
0.012683321 0.34756413 1.7363335
-0.014889364 0.35563239 1.7331336
-0.0045677256 0.35618559 1.7363335
0.0045630499 0.3559109 1.7350003
0.011634243 0.35155645 1.7310001
-0.0151751 0.36268488 1.7310001
-0.0041189557 0.36485276 1.7310001
0.0045525301 0.36344364 1.7310001
-0.05007783 0.46587557 1.7310001
0.13842799 -0.49292627 1.748
0.14251444 -0.49803433 1.748
0.15477374 -0.49496952 1.748
0.26587373 -0.49496949 1.748
0.28962612 -0.49343711 1.748
0.2951428 -0.49558249 1.7479999
0.31107992 -0.49496949 1.748
0.13638479 -0.48577499 1.748
0.15477376 -0.48577499 1.748
0.27430198 -0.48883986 1.748
0.28656128 -0.48679662 1.748
0.2961936 -0.4853372 1.748
0.30433729 -0.48393613 1.7479999
0.31312314 -0.4847534 1.748
0.32027438 -0.48271018 1.748
0.13331997 -0.47504812 1.748
0.15477376 -0.47964537 1.748
0.16090339 -0.47964537 1.748
0.29677737 -0.47760215 1.748
0.30433729 -0.47841945 1.7479999
0.31353179 -0.47504812 1.7479999
0.12719031 -0.46278882 1.748
0.13178754 -0.46585366 1.748
0.31337854 -0.46661985 1.748
0.12719031 -0.45359433 1.748
0.13102135 -0.45589298 1.748
0.12719031 -0.4459323 1.748
0.13025513 -0.4459323 1.748
0.12500115 -0.43411082 1.748
0.13156864 -0.43586212 1.748
0.15375213 -0.43162975 1.748
0.12719031 -0.42447847 1.748
0.13148105 -0.42509145 1.7479999
0.15477376 -0.42447853 1.748
0.16090339 -0.42754331 1.748
0.12535141 -0.41650993 1.7479999
0.13025513 -0.41528401 1.748
0.15375213 -0.41579485 1.748
0.16090339 -0.41528401 1.748
0.13463345 -0.40565172 1.748
0.15324132 -0.40685576 1.748
0.16090339 -0.40915436 1.748
0.13682261 -0.39777073 1.748
0.14353605 -0.39178702 1.748
0.15324132 -0.39383021 1.748
0.14470361 -0.38419789 1.748
0.15477376 -0.38463572 1.748
0.16274229 -0.3834098 1.7479999
0.14619222 -0.37605423 1.7479999
0.15564941 -0.37587911 1.748
0.16396822 -0.37544128 1.748
0.17163029 -0.37390885 1.748
0.14741817 -0.36685973 1.7479999
0.15652506 -0.36537108 1.748
0.16396822 -0.36471438 1.7479998
0.1711195 -0.36573598 1.748
0.15783857 -0.35551989 1.748
0.16396824 -0.35398746 1.748
0.17086409 -0.3532213 1.748
-0.12208226 -0.34479299 1.748
-0.11449317 -0.34391734 1.748
-0.10880134 -0.34326059 1.748
0.16550064 -0.34785783 1.748
0.17452484 -0.3444525 1.748
0.1838896 -0.34172818 1.748
-0.12208226 -0.33764172 1.748
-0.11493101 -0.33866334 1.748
-0.10573652 -0.33764172 1.748
-0.099606864 -0.33253369 1.748
0.17724915 -0.33662009 1.748
0.18454635 -0.33516067 1.748
-0.098074451 -0.32793644 1.748
-0.08734756 -0.32333922 1.748
-0.078153081 -0.32333922 1.748
-0.065893769 -0.32333922 1.748
0.18570065 -0.32528955 1.7479999
0.19155167 -0.32333922 1.748
0.18695444 -0.31414473 1.748
0.19155167 -0.31414473 1.748
0.18772063 -0.30571645 1.748
0.19155167 -0.30495027 1.748
0.19461648 -0.29575577 1.748
0.20176776 -0.29371253 1.748
0.19768132 -0.28962612 1.748
0.20569703 -0.28514674 1.7479998
0.208919 -0.27634519 1.748
0.21504867 -0.27328038 1.748
0.21913511 -0.26817232 1.748
0.22465178 -0.26449454 1.7479999
0.22832958 -0.25897786 1.748
0.23445924 -0.25591302 1.748
0.24365371 -0.24569692 1.748
0.24978337 -0.23752406 1.748
0.25489143 -0.23343761 1.748
0.25897786 -0.22526477 1.748
0.26449451 -0.22465178 1.7479999
0.27123716 -0.22219993 1.748
0.27481279 -0.21607025 1.748
0.28043163 -0.21300545 1.748
0.27583441 -0.20534338 1.748
0.2828154 -0.20415153 1.748
0.27468508 -0.19423339 1.748
0.2834965 -0.1946165 1.748
0.26663992 -0.18542202 1.748
0.27430198 -0.185422 1.748
0.28247485 -0.18644363 1.748
0.26663995 -0.17469512 1.748
0.27430201 -0.17469512 1.7479998
0.28043163 -0.17929237 1.748
0.26598316 -0.16440605 1.748
0.27430198 -0.16396822 1.748
0.26817232 -0.15477373 1.748
0.27430201 -0.15477376 1.748
0.26817232 -0.14251444 1.748
0.27430201 -0.14557928 1.748
0.26817232 -0.13638479 1.748
0.27458063 -0.1352703 1.7479999
0.28145325 -0.13127674 1.748
-0.18848684 -0.12259307 1.748
0.27634519 -0.1261687 1.748
0.28461093 -0.12384687 1.7479999
0.29269093 -0.12106065 1.748
-0.22322154 -0.11493101 1.748
-0.2176027 -0.114931 1.748
-0.20419408 -0.11569721 1.748
-0.1946165 -0.114931 1.748
-0.18585983 -0.11493099 1.748
-0.1746951 -0.11339859 1.748
0.28594834 -0.11523749 1.7479999
0.29345715 -0.1141648 1.748
-0.19308409 -0.10880134 1.748
-0.16458118 -0.10512356 1.7479999
-0.15400754 -0.10343789 1.748
-0.14634547 -0.10343789 1.748
0.28694439 -0.10611962 1.748
0.29422334 -0.10573652 1.748
0.31261232 -0.10267169 1.748
-0.15783857 -0.099606864 1.748
-0.14353605 -0.098585255 1.748
-0.13600168 -0.093477204 1.748
0.2875829 -0.095520429 1.748
0.29444227 -0.095666371 1.748
0.30597186 -0.091433994 1.748
0.31261232 -0.096542038 1.748
-0.13331996 -0.085815154 1.748
-0.12489168 -0.08198411 1.748
0.28656128 -0.08734756 1.748
-0.12208226 -0.077131473 1.748
-0.11531411 -0.074705146 1.748
-0.10573652 -0.072023429 1.748
-0.10573652 -0.067426182 1.748
-0.095666371 -0.06501811 1.748
-0.084282734 -0.063595146 1.748
-0.078153081 -0.062828943 1.748
-0.074322045 -0.058997914 1.748
-0.065893777 -0.058231711 1.748
-0.055823624 -0.058012795 1.748
-0.04367378 -0.055933084 1.748
-0.034632541 -0.052408535 1.7479999
-0.026051028 -0.050569639 1.748
-0.019921374 -0.050569639 1.748
-0.026051026 -0.047504812 1.748
-0.015324133 -0.046738606 1.748
-0.0076620667 -0.04137516 1.748
-0.0045972401 -0.038310334 1.748
0.0045972401 -0.037288725 1.748
0.013178754 -0.033406612 1.7479999
0.019921374 -0.027583439 1.748
0.024825096 -0.024825096 1.7479999
0.035245508 -0.022986198 1.748
0.029115854 -0.019921374 1.748
0.035245508 -0.019921374 1.748
0.044439986 -0.019921374 1.748
0.053634465 -0.019921374 1.748
0.06742619 -0.019921374 1.748
0.075854465 -0.018388961 1.748
0.083516531 -0.018388961 1.748
0.095009625 -0.016856547 1.748
0.10573652 -0.016856547 1.748
0.11493101 -0.016856547 1.748
0.12412548 -0.015834937 1.748
0.13393292 -0.015630616 1.7479999
0.14619222 -0.018082479 1.7479999
0.1543359 -0.012916054 1.748
0.16396822 -0.012259305 1.748
0.17491403 -0.013353886 1.748
0.18498419 -0.012916054 1.748
0.15477374 -0.0076620667 1.748
0.1946165 -0.0061296537 1.748
0.20517312 -0.0049377759 1.748
0.33866334 -0.0015324133 1.748
0.20381097 0.0015324134 1.748
0.33789712 0.0038310331 1.748
0.34785783 0.0061296532 1.748
0.35245508 0.0061296532 1.748
0.3677792 0.0076620667 1.748
0.34785783 0.012259306 1.748
0.35276157 0.013178754 1.7479999
0.36241573 0.0114931 1.748
-0.015017651 0.32456511 1.7479999
0.019921374 0.32333922 1.748
-0.011952823 0.3362115 1.7479999
-0.0045972401 0.33866334 1.748
-0.0045972401 0.3429541 1.7479999
0.0015324134 0.34479299 1.748
0.012259306 0.34479299 1.748
-0.019921374 0.3570523 1.748
0.0061296532 0.35092264 1.748
0.1355467 -0.49443737 1.7570001
0.27494416 -0.49520752 1.7570001
0.28583628 -0.4944374 1.7570001
0.13092579 -0.48519555 1.7570001
0.28803673 -0.48827615 1.7570001
0.29265764 -0.48827615 1.7570001
0.12784518 -0.47287312 1.7570001
0.13092579 -0.47595373 1.7570001
0.12630488 -0.46517161 1.7570001
0.12353233 -0.45377335 1.7570002
0.12322427 -0.44514766 1.7570001
0.1178332 -0.43590584 1.7570001
0.1237377 -0.43693271 1.7570001
0.11798724 -0.42419952 1.7570002
0.12388439 -0.42666405 1.7570001
0.11757649 -0.41639534 1.7570001
0.12388439 -0.41390154 1.7570001
0.11860336 -0.40201917 1.7570001
0.12564474 -0.40465972 1.7570001
0.13092579 -0.40509978 1.7570001
0.12681831 -0.3979117 1.7570001
0.1340064 -0.39534453 1.7570001
0.14016761 -0.39277735 1.7570001
0.13576673 -0.38485581 1.7570001
0.14016761 -0.38507584 1.7570001
0.14236803 -0.37429374 1.7570001
0.15249003 -0.37429371 1.7570001
0.1441284 -0.36505193 1.7570001
0.15326019 -0.36428174 1.7570001
-0.11398245 -0.35272947 1.7570001
0.14817718 -0.35642618 1.7570002
0.15557064 -0.35581008 1.7570002
-0.12168396 -0.34964886 1.7570001
-0.11706305 -0.34964886 1.7570001
-0.10348038 -0.34572813 1.7570001
0.14838256 -0.34862199 1.7570001
0.15762438 -0.34862199 1.7570001
0.16481246 -0.34451455 1.7570001
0.17097367 -0.34194735 1.7570001
-0.10011972 -0.33732644 1.7570001
-0.094574623 -0.3336297 1.7570002
-0.075474866 -0.33116522 1.7570001
-0.064692743 -0.33116522 1.7570001
-0.056991223 -0.33116522 1.7570001
0.17405428 -0.33424586 1.7570001
0.18021549 -0.33116522 1.7570001
-0.092418201 -0.32808462 1.7570001
-0.083689816 -0.32603088 1.7570001
-0.075474866 -0.32808462 1.7570001
-0.064692743 -0.32808462 1.7570001
0.17636473 -0.32577416 1.7570001
0.18098564 -0.32423386 1.7570001
0.1817558 -0.31576219 1.7570001
0.18534984 -0.30498007 1.7570001
0.18945731 -0.29727855 1.7570001
0.19356479 -0.29214421 1.7570001
0.19869913 -0.28495613 1.7570001
0.20177974 -0.28341582 1.7570001
0.20640065 -0.27725461 1.7570001
0.21102156 -0.2726337 1.7570001
0.21718277 -0.2695531 1.7570001
0.22334398 -0.26339188 1.7570001
0.23412611 -0.25569037 1.7570001
0.24490823 -0.24490823 1.7570001
0.24798883 -0.23874702 1.7570001
0.25260976 -0.23412611 1.7570001
0.2559104 -0.22554442 1.7570001
0.26462412 -0.22087951 1.7570002
0.25569037 -0.21410216 1.7570001
0.26493222 -0.21410219 1.7570001
0.2726337 -0.21410216 1.7570001
0.25569037 -0.20486034 1.7570001
0.26493222 -0.20486037 1.7570001
0.2726337 -0.20486034 1.7570001
0.2562038 -0.19767226 1.7570001
0.26535228 -0.19589858 1.7570001
0.2726337 -0.19869913 1.7570001
0.25723067 -0.1848364 1.7570001
0.26308385 -0.18514445 1.7570002
0.25723067 -0.17559458 1.7570001
0.26185158 -0.17405428 1.7570001
0.25723067 -0.16635276 1.7570001
0.26154351 -0.16419634 1.7570002
0.26339188 -0.15557064 1.7570001
0.26613021 -0.14530195 1.7570001
-0.18278266 -0.13297953 1.7570001
-0.17713489 -0.13092579 1.7570001
0.26724264 -0.13323624 1.7570001
0.2726337 -0.13092579 1.7570001
-0.20332004 -0.12168396 1.7570001
-0.19438627 -0.12353233 1.7570002
-0.18391222 -0.12507263 1.7570002
-0.17443936 -0.12437949 1.7570001
0.26801279 -0.12476457 1.7570001
0.27468744 -0.1237377 1.7570001
-0.1817558 -0.11860336 1.7570001
-0.17405428 -0.11860336 1.7570001
-0.16481246 -0.11398245 1.7570001
-0.15557064 -0.11398245 1.7570001
-0.14555867 -0.11436752 1.7570001
-0.137087 -0.11244214 1.7570001
0.27694654 -0.11675499 1.7570002
0.28187552 -0.11398245 1.7570001
-0.16275872 -0.10833467 1.7570001
-0.15618676 -0.1081293 1.7570002
-0.14363329 -0.10743616 1.7570001
-0.13428645 -0.10432055 1.7570001
-0.12707503 -0.10243017 1.7570001
0.27879491 -0.10782123 1.7570001
0.28249162 -0.10443257 1.7570002
-0.13323624 -0.096268959 1.7570001
-0.12514965 -0.093573429 1.7570001
-0.11757649 -0.091904767 1.7570001
0.28341582 -0.093958504 1.7570001
0.31268159 -0.095498808 1.7570001
-0.12414845 -0.086565048 1.7570002
-0.11552276 -0.084716685 1.7570001
-0.10551078 -0.083561458 1.7570001
0.28495613 -0.086256988 1.7570001
-0.11244214 -0.078555472 1.7570001
-0.10422719 -0.076501735 1.7570001
-0.094985373 -0.074447997 1.7570001
-0.086256988 -0.072394259 1.7570001
-0.093188353 -0.068543501 1.7570001
-0.084716685 -0.068081409 1.7570002
-0.075474866 -0.066233046 1.7570001
-0.064692743 -0.064692743 1.7570001
-0.053910617 -0.063665874 1.7570001
-0.045284919 -0.061304074 1.7570002
-0.035426978 -0.06007183 1.7570001
-0.024644854 -0.06007183 1.7570001
-0.035426978 -0.056991223 1.7570001
-0.024644854 -0.05545092 1.7570001
-0.01386273 -0.053910617 1.7570001
-0.010782124 -0.047749404 1.7570001
-0.0046209102 -0.043128494 1.7570001
0.0025671723 -0.04261506 1.7570001
0.01386273 -0.041588191 1.7570001
0.0077015166 -0.038507584 1.7570001
0.014632883 -0.037737433 1.7570001
0.021564247 -0.035426978 1.7570001
0.02772546 -0.02772546 1.7570001
0.034810856 -0.027417401 1.7570002
0.044052675 -0.024336793 1.7570002
0.053140465 -0.023874702 1.7570001
0.063665874 -0.022077681 1.7570001
0.075474866 -0.022334399 1.7570001
0.085332803 -0.02310455 1.7570002
0.094398595 -0.022224378 1.7570001
0.10422719 -0.022077681 1.7570001
0.11613888 -0.021256186 1.7570002
0.12476457 -0.020794095 1.7570001
0.13444647 -0.022224378 1.7570001
0.14393279 -0.023446839 1.7570001
0.15557064 -0.020023944 1.7570001
0.16635276 -0.020023944 1.7570001
0.17405428 -0.020023944 1.7570001
0.1832961 -0.020023944 1.7570001
0.12784518 -0.016943337 1.7570001
0.1340064 -0.016943337 1.7570001
0.15711094 -0.016943337 1.7570001
0.16481246 -0.016943337 1.7570001
0.17405428 -0.016943337 1.7570001
0.18791701 -0.016943337 1.7570001
0.19500241 -0.012014366 1.7570002
0.20486034 -0.010782124 1.7570001
0.21102156 -0.010782124 1.7570001
0.19869913 -0.0077015166 1.7570001
0.20177974 -0.0077015166 1.7570001
0.021564247 0.3188428 1.7570001
-0.010782124 0.32654431 1.7570001
-0.0046209102 0.32808462 1.7570001
0.015916469 0.32705775 1.7570001
0.020023944 0.3219234 1.7570001
-0.010782124 0.33116522 1.7570001
-0.0061612134 0.33424583 1.7570001
0.015403033 0.33424583 1.7570001
0.020023944 0.33116522 1.7570001
-0.0046209102 0.34040704 1.7570001
0.0057761376 0.34502798 1.7570001
0.011808992 0.34143391 1.7570001
0.12850004 -0.49077728 1.766
0.13314462 -0.49542186 1.766
0.12772594 -0.48381042 1.766
0.12488759 -0.47529531 1.7659999
0.11921088 -0.46600619 1.7660002
0.12308136 -0.4652321 1.766
0.1176627 -0.45516884 1.7659999
0.12230727 -0.45981342 1.766
0.10992172 -0.4412351 1.766
0.1161145 -0.44433144 1.7659999
0.10806389 -0.43380374 1.766
0.11425667 -0.43442306 1.766
0.10569938 -0.42575315 1.766
0.11425667 -0.42637244 1.766
0.10630927 -0.41852829 1.7659999
0.11542641 -0.41371167 1.7659999
0.12230727 -0.41027123 1.766
0.11572745 -0.40407848 1.7659999
0.12230727 -0.40407848 1.766
0.11797233 -0.39540857 1.766
0.12501661 -0.39440227 1.7659999
0.13159643 -0.39324111 1.766
0.11921088 -0.38859653 1.766
0.12540366 -0.38550016 1.7659999
0.13237053 -0.38627425 1.766
0.11921088 -0.37930736 1.766
0.12643579 -0.37517884 1.7659999
0.13469283 -0.37466279 1.7660002
-0.10218076 -0.36072904 1.766
-0.097536176 -0.36072904 1.766
0.12746792 -0.36588967 1.7660002
0.13469283 -0.36382544 1.7659999
0.14243379 -0.36227724 1.766
-0.12385546 -0.35608447 1.766
-0.1168886 -0.35685855 1.766
-0.10527714 -0.35608447 1.7659999
-0.097536176 -0.35453627 1.7660002
0.1354669 -0.35685858 1.766
0.1430973 -0.35453629 1.7659999
0.15327114 -0.35453629 1.7660002
-0.10372895 -0.34834349 1.766
-0.094439797 -0.34524712 1.7659999
-0.085537679 -0.34486005 1.7659999
-0.075861476 -0.34338927 1.766
-0.068120509 -0.34215072 1.766
0.14486666 -0.34568945 1.7659999
0.15499136 -0.34490305 1.7659999
0.1625603 -0.34215072 1.766
-0.092375539 -0.33802223 1.7660002
-0.085150622 -0.33595794 1.7659999
-0.075861476 -0.33750615 1.7659999
-0.065024123 -0.33750618 1.7659999
-0.056251023 -0.33699009 1.7660002
0.15481934 -0.33905435 1.766
0.16627596 -0.33781582 1.766
0.17184946 -0.33286157 1.766
-0.085150629 -0.32976517 1.766
0.17442977 -0.32460451 1.7659999
0.17680368 -0.31490251 1.766
0.17804223 -0.30654228 1.766
0.18299644 -0.30561337 1.766
0.18733139 -0.2988013 1.766
0.19042778 -0.29415673 1.766
0.19558842 -0.28848001 1.7660002
0.2074579 -0.27557841 1.766
0.21519887 -0.27093384 1.766
0.21829526 -0.26783744 1.766
0.23480932 -0.25545189 1.7660002
0.23996997 -0.24925913 1.766
0.24409848 -0.24616273 1.7660002
0.24848503 -0.2353254 1.766
0.25235552 -0.23222899 1.766
0.24925913 -0.22603622 1.766
0.2531296 -0.22371393 1.766
0.24925913 -0.21519887 1.7660002
0.25235552 -0.21519887 1.7660002
0.24925913 -0.20590971 1.7660002
0.25235552 -0.20590971 1.7660002
0.24925913 -0.19816875 1.766
0.25429076 -0.19429825 1.7659999
0.26164466 -0.19352417 1.766
0.2546778 -0.18423501 1.766
0.25493583 -0.17391372 1.7659999
0.24925913 -0.16875307 1.766
0.25456721 -0.16521434 1.7659999
0.25607115 -0.15543862 1.766
0.26164466 -0.15017475 1.766
0.25854829 -0.14398198 1.7660002
0.26241875 -0.14475608 1.766
-0.17339766 -0.13159643 1.766
0.25854829 -0.1377892 1.766
0.26319286 -0.13469283 1.7659999
-0.17184946 -0.12850004 1.766
-0.16521433 -0.12451898 1.7659999
-0.15496008 -0.12512216 1.766
-0.14501412 -0.12437152 1.7659999
-0.1377892 -0.12230727 1.766
0.25854829 -0.12540366 1.766
0.26319286 -0.12540366 1.7659999
-0.16565669 -0.11921088 1.7660002
-0.15481934 -0.11921088 1.766
-0.14191772 -0.11817876 1.7660002
-0.13469282 -0.1161145 1.7659999
-0.12579072 -0.11572745 1.7659999
-0.11766269 -0.11301811 1.766
0.26474106 -0.1161145 1.7659999
0.27358788 -0.11522981 1.7659999
-0.13159643 -0.10992172 1.766
-0.12424251 -0.10643829 1.7659999
-0.116396 -0.1048549 1.766
-0.10868317 -0.10310967 1.766
0.26783744 -0.10837353 1.766
0.27441725 -0.10721238 1.7659999
0.28022298 -0.10218076 1.766
-0.12230727 -0.097536176 1.766
-0.11508236 -0.095471919 1.7659999
-0.10589643 -0.09382052 1.766
0.28022298 -0.094439782 1.7660002
-0.10372895 -0.087472916 1.766
-0.09482684 -0.084763579 1.7659999
-0.087214887 -0.083086371 1.7660002
0.28228724 -0.087214887 1.7660002
-0.092375539 -0.077925734 1.7660002
-0.085150629 -0.076377541 1.7659999
-0.075861476 -0.074313283 1.7659999
-0.065024123 -0.07276509 1.766
-0.055734958 -0.07276509 1.766
-0.044897605 -0.07276509 1.766
-0.035608448 -0.07276509 1.7660002
-0.027867479 -0.07276509 1.766
-0.07276509 -0.069668703 1.766
-0.065024123 -0.069668703 1.766
-0.053412668 -0.06889461 1.766
-0.044455264 -0.067456998 1.7659999
-0.035608452 -0.066572316 1.7659999
-0.024771092 -0.066572316 1.7660002
-0.014215228 -0.064601891 1.766
-0.0054186769 -0.051864475 1.766
0.0030963868 -0.051090378 1.766
0.013933741 -0.051090378 1.766
0.023222899 -0.051090378 1.766
-0.0038704835 -0.047219895 1.766
0.0056767091 -0.045929734 1.7659999
0.01393374 -0.045284655 1.7659999
0.024348855 -0.044616114 1.766
0.034060255 -0.043349411 1.766
0.027867479 -0.035608444 1.7659999
0.035221402 -0.035221402 1.7659999
0.044897605 -0.032512061 1.7660002
0.054186765 -0.032512061 1.7660002
0.065024123 -0.032512061 1.766
0.075861476 -0.032512061 1.7660002
0.085150629 -0.032512061 1.7660002
0.094439782 -0.032512061 1.7660002
0.10527714 -0.032512061 1.766
0.11673377 -0.033750616 1.766
0.12540366 -0.034723766 1.7659999
0.13391872 -0.033286158 1.766
0.14398198 -0.033286158 1.766
0.15017475 -0.032512061 1.766
0.038704835 -0.029415673 1.766
0.045671701 -0.028641576 1.766
0.054806042 -0.028177118 1.766
0.065024123 -0.027867477 1.7659999
0.075861476 -0.027867479 1.7659999
0.085150637 -0.028177118 1.766
0.093820512 -0.028177118 1.766
0.10594065 -0.028088648 1.7659999
0.11567216 -0.027203966 1.7659999
0.12540366 -0.026706332 1.7659999
0.13407354 -0.028177118 1.766
0.14475608 -0.028641576 1.766
0.15512897 -0.023842176 1.766
0.16488259 -0.022448802 1.766
0.17494583 -0.023222899 1.7660002
0.18423502 -0.023222899 1.7660002
0.19197598 -0.020126512 1.766
0.19739464 -0.016256031 1.766
0.2059097 -0.015172295 1.766
0.21210249 -0.015481934 1.766
0.023222899 0.31737962 1.766
