# .PCD v0.7 - Point Cloud Data file format
VERSION 0.7
FIELDS x y z
SIZE 4 4 4
TYPE F F F
COUNT 1 1 1
WIDTH 261
HEIGHT 1
VIEWPOINT 0 0 0 1 0 0 0
POINTS 261
DATA ascii
-0.10480287 -0.10197035 1.077
-0.097249508 -0.10291453 1.077
-0.11078262 -0.095361173 1.077
-0.10559796 -0.095162392 1.0769999
-0.10385869 -0.089696147 1.077
-0.11046789 -0.070812747 1.077
-0.10857955 -0.070812747 1.077
-0.11093997 -0.06420356 1.077
-0.10826483 -0.06451828 1.077
-0.10629496 -0.059261788 1.0730001
-0.15151693 -0.11149359 1.087
-0.14922988 -0.11416181 1.087
-0.15151693 -0.10768184 1.087
-0.14808635 -0.10653832 1.087
-0.12367038 -0.10368928 1.0851249
-0.11561286 -0.10437217 1.0836086
-0.10621972 -0.10337844 1.0818332
-0.093872778 -0.10209593 1.0816666
-0.087193698 -0.10101128 1.087
-0.1311876 -0.093705438 1.087
-0.1243807 -0.094985999 1.0856799
-0.11581879 -0.094919786 1.0833158
-0.10257 -0.096257992 1.08
-0.094607316 -0.095301665 1.0821817
-0.087119825 -0.09430027 1.0865384
-0.12292883 -0.082667246 1.087
-0.11412858 -0.084939621 1.0844346
-0.10520463 -0.084906794 1.0804285
-0.095330901 -0.085133024 1.0845151
-0.085870184 -0.084176064 1.087
-0.1217185 -0.076764084 1.0863999
-0.1149786 -0.075065963 1.0838696
-0.10500129 -0.075002059 1.0806667
-0.095217317 -0.075225279 1.0861666
-0.087098405 -0.078331389 1.087
-0.11344261 -0.067096166 1.0813334
-0.10393562 -0.065623716 1.0817499
-0.09646371 -0.065039679 1.0862499
-0.10168281 -0.059869319 1.0840001
-0.097881585 -0.059869319 1.0840001
-0.17252958 -0.16137382 1.097
-0.16829808 -0.16060446 1.097
-0.17241967 -0.15730718 1.097
-0.16781722 -0.15723848 1.097
-0.17022149 -0.14233209 1.097
-0.16829808 -0.14233209 1.097
-0.183493 -0.13406143 1.097
-0.17503001 -0.1346385 1.097
-0.16797751 -0.13495903 1.097
-0.15387253 -0.13271506 1.097
-0.14709532 -0.13363673 1.0966668
-0.18351048 -0.12703227 1.097
-0.17502999 -0.12502143 1.097
-0.1646513 -0.12551807 1.0962801
-0.15449253 -0.12570725 1.09456
-0.14523771 -0.1254649 1.0946522
-0.13906564 -0.12180232 1.0940001
-0.18364294 -0.11460831 1.0959285
-0.17520462 -0.11540926 1.0953636
-0.16475083 -0.11555741 1.093125
-0.15546648 -0.11571795 1.0908697
-0.14417484 -0.11581906 1.0903335
-0.13855717 -0.11562357 1.09
-0.18301702 -0.10522584 1.0945333
-0.17526893 -0.10530315 1.0936452
-0.16531341 -0.10515264 1.0921724
-0.15565446 -0.10507578 1.0906553
-0.14381815 -0.10465962 1.0904801
-0.13550861 -0.10470471 1.0924168
-0.1290015 -0.10224563 1.09
-0.082811683 -0.10155623 1.0908
-0.074479848 -0.10172713 1.0956365
-0.067639798 -0.10161999 1.097
-0.18368535 -0.099055439 1.097
-0.17412198 -0.096353933 1.0966667
-0.16444398 -0.095220283 1.0954616
-0.15411974 -0.094766065 1.09192
-0.14530805 -0.095278822 1.0908422
-0.13392766 -0.096620597 1.0912001
-0.1261348 -0.090778835 1.09
-0.11944583 -0.090778835 1.09
-0.082840279 -0.095042139 1.09
-0.074740276 -0.09486749 1.0930667
-0.066024721 -0.095077455 1.0955
-0.16381015 -0.088369846 1.097
-0.15444656 -0.085623115 1.0953749
-0.14705427 -0.086798325 1.0910001
-0.13252634 -0.08495266 1.0932727
-0.12627269 -0.086185314 1.0916471
-0.11944583 -0.086001001 1.09
-0.082315244 -0.086683549 1.09
-0.075021133 -0.085421398 1.0921428
-0.065547317 -0.084465705 1.094238
-0.058663905 -0.081744783 1.097
-0.13303562 -0.078539103 1.097
-0.12716974 -0.077483147 1.0936364
-0.11944583 -0.079312034 1.09
-0.084472097 -0.074725315 1.09
-0.07523258 -0.074391969 1.0915002
-0.064742967 -0.075283565 1.0931563
-0.057702199 -0.074051157 1.097
-0.092371441 -0.065615587 1.09
-0.08517421 -0.065077335 1.0917
-0.077897973 -0.066838384 1.097
-0.16698132 -0.16119006 1.1010001
-0.15055872 -0.16707163 1.108
-0.14614142 -0.16555198 1.1072221
-0.13995545 -0.16505091 1.1010001
-0.18164183 -0.15153007 1.108
-0.17510071 -0.15336949 1.1027646
-0.16468863 -0.15474539 1.1029047
-0.15471037 -0.15254283 1.1074705
-0.14491403 -0.15359627 1.1076469
-0.13852648 -0.15015109 1.105
-0.18203327 -0.14525095 1.1045001
-0.17507419 -0.14568177 1.1026999
-0.1648754 -0.14583448 1.101
-0.15519559 -0.14519066 1.1047081
-0.14429356 -0.14454 1.1046665
-0.13746308 -0.1445169 1.1063634
-0.18145949 -0.13995545 1.1010001
-0.174703 -0.13995545 1.1010001
-0.16379613 -0.13599807 1.101
-0.15591669 -0.13733245 1.1012499
-0.14389826 -0.13616036 1.1038998
-0.13834751 -0.13529471 1.1079999
-0.18542756 -0.12343963 1.101
-0.14093791 -0.12803803 1.1036667
-0.13894641 -0.12636492 1.1045001
-0.18628553 -0.10134705 1.1010001
-0.13609461 -0.10134705 1.1010001
-0.07239075 -0.10520789 1.1010001
-0.064904019 -0.10171525 1.105
-0.054395415 -0.10102005 1.108
-0.049538679 -0.10004871 1.108
-0.18223165 -0.095169708 1.101
-0.17580609 -0.092522271 1.101
-0.06171529 -0.095635265 1.101889
-0.05548358 -0.094694115 1.1062498
-0.048675254 -0.09400478 1.1079999
-0.18145949 -0.089764528 1.1010001
-0.17424126 -0.087670289 1.1024286
-0.16531853 -0.083800152 1.1027893
-0.15781184 -0.080595031 1.1010001
-0.062095184 -0.088155843 1.101
-0.055065665 -0.084384449 1.1052915
-0.048386645 -0.084168285 1.1063334
-0.067564696 -0.070460327 1.1010001
-0.053688359 -0.074371278 1.1017058
-0.048123505 -0.074868523 1.103909
-0.080112427 -0.061773442 1.1010001
-0.073671818 -0.064015873 1.1013999
-0.064964622 -0.064960301 1.1032915
-0.055908382 -0.066312104 1.1043124
-0.04940455 -0.067810163 1.105
-0.080952279 -0.058376942 1.1036667
-0.075115211 -0.058207378 1.102
-0.066900186 -0.059145194 1.1060001
-0.15423591 -0.17082945 1.1135001
-0.14720285 -0.17059933 1.1120001
-0.15430579 -0.16405852 1.1126001
-0.14574057 -0.16361289 1.1120002
-0.16085079 -0.15695138 1.1120001
-0.15606517 -0.1573059 1.1120002
-0.14590305 -0.15662643 1.1120001
-0.13745432 -0.1348547 1.1120001
-0.13745432 -0.1296555 1.1120001
-0.061415758 -0.1023596 1.1120001
-0.053616934 -0.1023596 1.1120001
-0.18132272 -0.088711649 1.1120001
-0.17839816 -0.088711649 1.1120001
-0.061415758 -0.061415758 1.1120001
-0.054298393 -0.062752388 1.1126667
-0.04976223 -0.063420691 1.113
-0.062558934 -0.059626482 1.115
-0.056620397 -0.059546269 1.1135001
-0.18064418 -0.082918644 1.126
-0.17570855 -0.082918637 1.126
-0.17176004 -0.079957262 1.126
-0.16879866 -0.079957262 1.126
-0.17599434 -0.081798255 1.131
-0.078176752 -0.23244554 1.189
-0.104937 -0.24030572 1.197
-0.10472713 -0.23652799 1.197
-0.096691951 -0.23640807 1.1969999
-0.082900226 -0.2340095 1.197
-0.078702748 -0.23191077 1.197
-0.104937 -0.22981203 1.197
-0.098640777 -0.22666392 1.197
-0.059814088 -0.22561455 1.197
-0.10178889 -0.21931833 1.197
-0.098640777 -0.21931833 1.197
-0.1125342 -0.23362875 1.2046666
-0.10507427 -0.23483644 1.2019999
-0.095356286 -0.23409829 1.2028571
-0.084792376 -0.23291337 1.2040001
-0.075065456 -0.23233289 1.2060002
-0.11154094 -0.22783953 1.2060001
-0.10359044 -0.22663033 1.2039999
-0.096092701 -0.22550017 1.2045455
-0.07125932 -0.22688799 1.2060001
-0.06487345 -0.22476411 1.2052001
-0.055757754 -0.22244596 1.2051113
-0.01374438 -0.1427301 1.2060001
-0.11668433 -0.23018636 1.21
-0.091225937 -0.23124713 1.21
-0.0859221 -0.2317775 1.21
-0.07743597 -0.23018636 1.21
-0.11519925 -0.2267919 1.21
-0.091928698 -0.22446634 1.2103636
-0.084670991 -0.22441456 1.2106667
-0.076346681 -0.22423315 1.210421
-0.065767534 -0.22170024 1.21
-0.050020847 -0.22030458 1.2140001
-0.09393283 -0.21897757 1.2117144
-0.08494164 -0.21757026 1.2141999
-0.074767932 -0.2157962 1.2113998
-0.064715043 -0.21536356 1.2101598
-0.054555308 -0.21569772 1.2120434
-0.048089549 -0.21586865 1.2190001
-0.063934974 -0.20805101 1.2136364
-0.054490577 -0.20538531 1.2144548
-0.045181736 -0.20310339 1.2155001
-0.035193346 -0.20263056 1.2165
-0.051357385 -0.19704613 1.2168572
-0.044709332 -0.19480124 1.2142502
-0.03512102 -0.19476205 1.2140003
-0.027079845 -0.19310647 1.2140001
-0.044242386 -0.18872477 1.2190001
-0.034721937 -0.18504795 1.2169546
-0.024727076 -0.1844743 1.2175417
-0.034340598 -0.17612338 1.2186428
-0.024535267 -0.17496996 1.217
-0.017098505 -0.17525968 1.219
-0.030991044 -0.16884775 1.2190001
-0.024218949 -0.16544843 1.2148697
-0.015471516 -0.16466872 1.2145884
-0.021849746 -0.15506364 1.2156667
-0.015061237 -0.15477014 1.211647
-0.0095469002 -0.15168963 1.21
-0.020276716 -0.14620872 1.2173334
-0.014562671 -0.14567344 1.2118826
-0.0089532714 -0.14461868 1.2117144
-0.013835554 -0.13941981 1.2140001
-0.0085141864 -0.13941981 1.2140001
-0.1358967 -0.2323914 1.223
-0.050391678 -0.21228835 1.223
-0.045181155 -0.2128008 1.2238889
-0.039799791 -0.21190698 1.2270001
-0.050391678 -0.20907184 1.223
-0.044316083 -0.20835708 1.223
-0.037525717 -0.20799969 1.223
-0.043998774 -0.18565559 1.2241429
-0.038998518 -0.18210793 1.2243334
-0.017512001 -0.18191038 1.223
-0.033951838 -0.17190354 1.223
-0.031877648 -0.16654767 1.2256669
-0.028296754 -0.16153255 1.2256669
-0.025788026 -0.15580033 1.2256669
-0.091804534 -0.21925083 1.2320001
-0.089644425 -0.21925083 1.2320001
