# .PCD v0.7 - Point Cloud Data file format
VERSION 0.7
FIELDS x y z
SIZE 4 4 4
TYPE F F F
COUNT 1 1 1
WIDTH 240
HEIGHT 1
VIEWPOINT 0 0 0 1 0 0 0
POINTS 240
DATA ascii
-0.0616735 -0.2031114 0.93800002
-0.055389997 -0.20390695 0.93599993
-0.060302977 -0.19708109 0.93800002
-0.055208277 -0.19592236 0.93747813
-0.065516807 -0.22143021 0.94600004
-0.071330473 -0.21454273 0.94733334
-0.064929597 -0.21389358 0.94253594
-0.057409976 -0.21123576 0.94000006
-0.07366924 -0.20455728 0.94496155
-0.064604491 -0.2048026 0.94072765
-0.057684664 -0.20684071 0.94000006
-0.073315375 -0.19573343 0.94592589
-0.064918235 -0.19464001 0.94178152
-0.054486807 -0.19153874 0.94174999
-0.047541283 -0.19199386 0.94480002
-0.091695823 -0.18588489 0.94800013
-0.082276925 -0.18159097 0.94800001
-0.073762253 -0.18481582 0.94699985
-0.064576291 -0.18543912 0.94433337
-0.054581419 -0.18524343 0.94333351
-0.045542769 -0.18500154 0.94455165
-0.082276918 -0.1772278 0.94800001
-0.074283928 -0.17582442 0.9472
-0.064765967 -0.17519648 0.94714308
-0.054730359 -0.17496321 0.94588059
-0.0447358 -0.17479947 0.94499999
-0.036950972 -0.17340812 0.94509995
-0.061143748 -0.16562235 0.94800001
-0.055128314 -0.16510788 0.94800001
-0.044513289 -0.166301 0.94780958
-0.036616407 -0.16606934 0.94800007
-0.052997332 -0.15643483 0.94800001
-0.082566723 -0.21198902 0.95685714
-0.076630577 -0.21328554 0.95407706
-0.092406578 -0.20161645 0.95825005
-0.085236549 -0.20453942 0.95606881
-0.078966185 -0.20631431 0.95150012
-0.092511423 -0.19465388 0.9550001
-0.085231572 -0.19501606 0.95540547
-0.078313075 -0.19459678 0.95200014
-0.092311688 -0.18796216 0.95150012
-0.08604794 -0.1857454 0.95295858
-0.078118518 -0.18807654 0.95228577
-0.083732121 -0.17484221 0.95146167
-0.07741756 -0.17182668 0.95300007
-0.080869868 -0.16840941 0.95100003
-0.074708544 -0.16571586 0.95350033
-0.065994047 -0.16499287 0.95203471
-0.053635344 -0.16229554 0.95100003
-0.045538802 -0.16264112 0.9514001
-0.033551052 -0.16406827 0.95305294
-0.028268293 -0.1640899 0.95400012
-0.073716395 -0.15706643 0.95555019
-0.06536039 -0.15501201 0.95580965
-0.056154501 -0.15422788 0.95230448
-0.045119986 -0.15542263 0.95316684
-0.035182409 -0.15503244 0.95437497
-0.025600597 -0.15459383 0.95473534
-0.064338788 -0.14540949 0.95634782
-0.055332296 -0.14524275 0.95515376
-0.045197286 -0.1456323 0.9547224
-0.035260793 -0.14528802 0.95624977
-0.025936026 -0.14676817 0.95718169
-0.062523112 -0.13855717 0.95457143
-0.055722464 -0.13747549 0.95773679
-0.04511195 -0.1361517 0.9550001
-0.037015215 -0.13520445 0.95577276
-0.041066572 -0.12990446 0.95600003
-0.035094094 -0.12876467 0.95642853
-0.075448565 -0.25008231 0.96700007
-0.068666667 -0.25008231 0.96700007
-0.074035667 -0.24344172 0.96700007
-0.067818932 -0.24457201 0.96700007
-0.083162971 -0.23456874 0.96700019
-0.075115383 -0.2358377 0.96681297
-0.068666667 -0.23990947 0.96700007
-0.094800547 -0.22430174 0.96550006
-0.082109354 -0.22634567 0.96700007
-0.076475307 -0.22548287 0.96571451
-0.091436692 -0.21499424 0.96425003
-0.086377174 -0.21468225 0.96410006
-0.077991769 -0.2195638 0.96700007
-0.091684557 -0.20710348 0.96200001
-0.088552102 -0.20999497 0.96200007
-0.031787932 -0.14149986 0.96266675
-0.024818784 -0.14266382 0.96293336
-0.054560333 -0.13319775 0.96270585
-0.049757846 -0.13240647 0.96200007
-0.032567166 -0.13545927 0.96314281
-0.027242769 -0.13638672 0.96510011
-0.043726381 -0.29065183 0.97800004
-0.057015769 -0.28122064 0.97800004
-0.043921683 -0.28550142 0.97741967
-0.036357999 -0.28772181 0.97659999
-0.08488062 -0.2700747 0.97800004
-0.063446127 -0.27164656 0.97799999
-0.05483317 -0.27441216 0.97774309
-0.047727484 -0.27450451 0.97799999
-0.03172306 -0.2700747 0.97800004
-0.094337627 -0.26216125 0.9758181
-0.085349225 -0.26425216 0.97639316
-0.074794188 -0.26379752 0.97742873
-0.065074705 -0.26458105 0.97670019
-0.05485535 -0.26488781 0.97722608
-0.044781011 -0.26383072 0.97785723
-0.033905853 -0.26428521 0.97764015
-0.027221814 -0.26557347 0.9780001
-0.10000575 -0.25329092 0.97500008
-0.095096 -0.25477651 0.97554862
-0.085474998 -0.25471547 0.97500008
-0.075153224 -0.25556362 0.97451729
-0.064700656 -0.25524905 0.97331035
-0.054680504 -0.25546762 0.97460002
-0.044344962 -0.25495046 0.97542864
-0.034227405 -0.25502041 0.97616684
-0.027436161 -0.25850007 0.97800004
-0.10090705 -0.24429674 0.97710007
-0.09506505 -0.24478766 0.9757244
-0.085332796 -0.24489635 0.97333336
-0.075328708 -0.24717852 0.97149998
-0.063554987 -0.2453007 0.97144425
-0.054613169 -0.24576089 0.97338879
-0.045476545 -0.24704756 0.97472245
-0.035076573 -0.24810657 0.97590005
-0.10154781 -0.2358036 0.97750002
-0.094732232 -0.23520654 0.97480774
-0.088153563 -0.2348799 0.97046173
-0.07058043 -0.23385084 0.97000009
-0.065109201 -0.23557104 0.9722119
-0.056317165 -0.2384176 0.97166663
-0.093607292 -0.22702523 0.97399998
-0.086281568 -0.22392 0.97059989
-0.072798267 -0.22739193 0.97042859
-0.067604147 -0.22832346 0.97000003
-0.087587766 -0.21854423 0.97000003
-0.065026753 -0.29045281 0.98900002
-0.028467121 -0.29070967 0.98400003
-0.071599118 -0.28208327 0.98400003
-0.065171912 -0.2842215 0.98466665
-0.058590613 -0.28640857 0.98580009
-0.042140488 -0.28122327 0.98100013
-0.033544816 -0.28368914 0.98359102
-0.025599623 -0.28483245 0.9883638
-0.018455211 -0.28203031 0.98899996
-0.082560956 -0.27090314 0.98100007
-0.074648678 -0.27405524 0.98352635
-0.066015638 -0.27630541 0.98157167
-0.043143827 -0.27513155 0.98100024
-0.034534529 -0.27542937 0.98263651
-0.025093071 -0.2754215 0.98399997
-0.018499022 -0.27622291 0.98772734
-0.077114232 -0.26803645 0.98100007
-0.044242736 -0.26822755 0.98100007
-0.036120418 -0.26832312 0.98100007
-0.024375718 -0.26447579 0.98139995
-0.019870965 -0.26437151 0.98550004
-0.024593569 -0.25590733 0.98249996
-0.018546758 -0.25749803 0.98400003
-0.020002026 -0.29133385 0.99200004
-0.021161564 -0.28727546 0.99200004
-0.017566998 -0.28576809 0.99199998
-0.01826272 -0.2739408 0.99200004
-0.015186497 -0.25459716 1.0190001
-0.023073869 -0.25198379 1.0253334
-0.017045323 -0.25208959 1.0233334
-0.022865571 -0.24862373 1.0268
-0.018870249 -0.24890758 1.0250001
0.057123017 -0.27666813 1.0370001
0.063189991 -0.27424166 1.0376924
-0.037309177 -0.26116425 1.0380001
-0.045338415 -0.25292087 1.0380001
-0.035604533 -0.25495702 1.0372308
-0.02874558 -0.25425598 1.0334547
0.07916826 -0.25388443 1.0380001
0.082448274 -0.25395966 1.0376365
-0.055158958 -0.2445427 1.0337933
-0.045491591 -0.24414024 1.0345163
-0.034995746 -0.24447176 1.034552
-0.027309375 -0.24621697 1.034
0.083718166 -0.24796955 1.0380001
-0.045502592 -0.23658948 1.0348424
-0.036186088 -0.23712334 1.0341818
-0.029826829 -0.23771079 1.031
0.077299789 -0.22401522 1.0373334
0.080988221 -0.21020538 1.0380001
0.09736786 -0.18290597 1.0380001
0.076539427 -0.16227977 1.0380001
0.081898205 -0.1637964 1.0380001
0.067338526 -0.15105668 1.0380001
0.075202495 -0.15502594 1.0373847
0.083763957 -0.15521786 1.0348097
0.068590991 -0.14445449 1.0363334
0.074979924 -0.14524038 1.033143
0.081927232 -0.14726792 1.0320001
0.068891972 -0.13869041 1.034
0.072517864 -0.13869041 1.034
0.065707922 -0.27104518 1.041
0.07027097 -0.27104518 1.041
-0.042892668 -0.26100644 1.041
-0.037417009 -0.26100647 1.041
0.067331441 -0.26601136 1.0433077
0.073730171 -0.26395974 1.0424402
0.06884025 -0.25700361 1.0470001
0.074858569 -0.25516281 1.0437781
0.08487273 -0.25279295 1.041
0.076443806 -0.24571125 1.04225
0.085099213 -0.24418913 1.0420387
0.090608761 -0.2425386 1.044
0.078529701 -0.234677 1.0416
0.085041374 -0.2350006 1.0430402
0.091393255 -0.23390916 1.044
0.079032026 -0.22577973 1.041
0.085228905 -0.22524393 1.0429288
0.093723789 -0.22453134 1.0434232
0.079397067 -0.21628857 1.041
0.085254893 -0.21503544 1.0441037
0.095066048 -0.21483776 1.0436364
0.10181058 -0.21279132 1.04625
0.086332552 -0.20583835 1.0453999
0.09540797 -0.2047618 1.0440884
0.10188357 -0.20743862 1.0470001
0.087056443 -0.1953651 1.0470001
0.094675712 -0.19514948 1.0440001
0.086467698 -0.18467507 1.0459502
0.093904853 -0.18542178 1.0438848
0.07875745 -0.17231707 1.0422
0.085032009 -0.17463022 1.0429201
0.092928126 -0.17570297 1.0426668
0.075606234 -0.16588442 1.0410001
0.086234607 -0.16575404 1.0418825
0.090818636 -0.1668372 1.0422
0.06844575 -0.15514371 1.041
0.070636012 -0.15751648 1.041
0.086697951 -0.15970674 1.041
0.065927789 -0.14482358 1.0416
0.069037497 -0.2605015 1.0500001
0.070878498 -0.2605015 1.0500001
0.0849448 -0.20404837 1.0532
0.084228031 -0.19352557 1.0512002
0.083765499 -0.18870251 1.0500001
