# .PCD v0.7 - Point Cloud Data file format
VERSION 0.7
FIELDS x y z
SIZE 4 4 4
TYPE F F F
COUNT 1 1 1
WIDTH 238
HEIGHT 1
VIEWPOINT 0 0 0 1 0 0 0
POINTS 238
DATA ascii
-0.17338856 -0.06411317 0.97784215
-0.16530976 -0.063178562 0.97594756
-0.15742303 -0.061657719 0.97533333
-0.18119298 -0.055729702 0.9780001
-0.17459367 -0.054775372 0.97625011
-0.16448946 -0.054830607 0.97725022
-0.15443756 -0.054755587 0.97773564
-0.14687577 -0.054146841 0.97799999
-0.17147601 -0.04887066 0.97800004
-0.16223535 -0.046965372 0.9780001
-0.15475711 -0.045624871 0.97800022
-0.14759184 -0.046665967 0.9780001
-0.18164207 -0.032947887 0.9780001
-0.17730619 -0.033266343 0.97800004
-0.16033006 -0.036867339 0.97800004
-0.15747212 -0.035724167 0.9780001
-0.14532591 -0.030436989 0.97800004
-0.18090717 -0.028293541 0.97800004
-0.17843936 -0.025983522 0.97700006
-0.14314252 -0.026259117 0.97772729
-0.13786671 -0.023835162 0.97800004
-0.18141828 -0.071240567 0.98700005
-0.17630205 -0.071380831 0.98100007
-0.1839197 -0.063895658 0.98492867
-0.17749284 -0.065691523 0.98100001
-0.19229466 -0.055064317 0.98845464
-0.18639721 -0.055032641 0.98470849
-0.15222177 -0.056760661 0.98100007
-0.14283985 -0.052773342 0.98100001
-0.13566658 -0.051385596 0.98100001
-0.1298615 -0.050740588 0.98100007
-0.19273932 -0.04456497 0.98842865
-0.18524298 -0.045011073 0.98738873
-0.17522752 -0.044525523 0.98357147
-0.16604152 -0.044073436 0.98134649
-0.15329678 -0.041065477 0.98100001
-0.14362207 -0.044541281 0.98146176
-0.1347817 -0.044559907 0.98260003
-0.12518173 -0.043649502 0.9837693
-0.117529 -0.043116655 0.98700017
-0.19122466 -0.038071878 0.98700005
-0.18555287 -0.037479755 0.9844287
-0.17438406 -0.03467631 0.98209101
-0.16551025 -0.034544472 0.9820314
-0.1541266 -0.034205683 0.98141408
-0.14446804 -0.03486776 0.98244447
-0.1344713 -0.034634244 0.98417127
-0.12451588 -0.034585934 0.98636109
-0.11525171 -0.034673166 0.98796546
-0.17494789 -0.025442911 0.98200005
-0.16520074 -0.024744138 0.98429006
-0.15461738 -0.024993191 0.98319232
-0.14643997 -0.024164965 0.98219997
-0.13417928 -0.025315827 0.98147362
-0.12502807 -0.0254524 0.98468
-0.11842532 -0.024813244 0.98725009
-0.17103504 -0.019324362 0.98700005
-0.16364418 -0.01827883 0.98700023
-0.15450712 -0.016665852 0.98699999
-0.14537868 -0.015571715 0.9870832
-0.13486919 -0.015205145 0.98560601
-0.12498928 -0.015340734 0.98624992
-0.11538996 -0.015687155 0.98734379
-0.10988929 -0.01470959 0.98700005
-0.14392588 -0.0095372563 0.98900002
-0.13544169 -0.0049508503 0.98764294
-0.12905586 -0.0060665333 0.98800004
-0.11488666 -0.0090271616 0.98742855
-0.19325066 -0.072897226 0.99745464
-0.1888942 -0.074415363 0.99599999
-0.19456853 -0.064655609 0.99557698
-0.18870667 -0.06755133 0.99425006
-0.20348808 -0.0539065 0.99781263
-0.1970779 -0.054940432 0.99470007
-0.20149745 -0.048847869 0.99500006
-0.19747172 -0.047251537 0.99309087
-0.1124097 -0.041827518 0.99400002
-0.10936417 -0.041120928 0.99800003
-0.11099064 -0.034675043 0.99242866
-0.10727212 -0.034831826 0.99482358
-0.11326769 -0.024728326 0.99356538
-0.10936417 -0.025372485 0.99799997
-0.12088181 -0.011305493 0.99200004
-0.11044598 -0.01826272 0.99200004
-0.10777022 -0.017293302 0.99620008
-0.14059396 -0.0072471108 0.99200004
-0.1342611 -0.007425501 0.99199992
-0.12508029 -0.0060941488 0.99328595
-0.11787261 -0.0057130419 0.99433339
-0.17096956 -0.10564213 1.0070001
-0.22511484 -0.091433205 1.0070001
-0.21401675 -0.092820473 1.0070001
-0.20569317 -0.09379787 1.0070001
-0.19668858 -0.092694342 1.0070001
-0.23278992 -0.083362527 1.0066
-0.22499312 -0.084657811 1.0070001
-0.21526289 -0.084694326 1.0063334
-0.20469002 -0.084700398 1.0064168
-0.19514444 -0.085176535 1.0062222
-0.18882567 -0.083825551 1.0065
-0.2310002 -0.074449748 1.0070001
-0.22503565 -0.07501211 1.00664
-0.21480599 -0.07483016 1.0041999
-0.20515765 -0.075054944 1.0053846
-0.19667105 -0.076218337 1.0024002
-0.18867181 -0.078978896 1.001
-0.23041166 -0.069741465 1.0070001
-0.2248221 -0.065433748 1.0046773
-0.21479851 -0.0651429 1.0041667
-0.20501977 -0.065115377 1.0036998
-0.19920233 -0.06844838 1.001
-0.2209235 -0.058971614 1.0040001
-0.21388362 -0.05733813 1.0039999
-0.20581922 -0.057426579 1.0016
-0.10618274 -0.030714016 1.001
-0.10742915 -0.024579762 1.0013751
-0.10618274 -0.018428409 1.001
-0.16705146 -0.13131852 1.0190001
-0.22032607 -0.12220252 1.0175
-0.21480598 -0.12343458 1.0160002
-0.2052206 -0.1242859 1.0185164
-0.19495064 -0.12375963 1.0190004
-0.18506682 -0.12402306 1.0190004
-0.17618322 -0.12288158 1.0190002
-0.16449912 -0.12468241 1.0190001
-0.22215497 -0.11445162 1.0138826
-0.21493596 -0.11480197 1.0163465
-0.20502752 -0.11525604 1.0185388
-0.19521093 -0.11524849 1.0178463
-0.18526103 -0.11487144 1.0168278
-0.17735095 -0.11534379 1.0190001
-0.23089647 -0.10035115 1.013
-0.22413351 -0.10465484 1.0130004
-0.21534033 -0.10508543 1.0137944
-0.20553245 -0.10460685 1.0132816
-0.19506705 -0.10463186 1.0114169
-0.18503369 -0.10497358 1.0147501
-0.17583235 -0.10602412 1.0126842
-0.23184998 -0.094636895 1.012
-0.22452784 -0.09594848 1.0118951
-0.21630071 -0.096413307 1.0105001
-0.20440862 -0.095500305 1.0100001
-0.19355574 -0.095626786 1.0100001
-0.18568958 -0.09524364 1.0146158
-0.23251478 -0.088012077 1.01
-0.22932723 -0.087657899 1.01
-0.19036816 -0.088543333 1.01
-0.18812805 -0.088739932 1.0122499
-0.23198354 -0.077475414 1.01
-0.20278053 -0.14160219 1.0262001
-0.19584511 -0.14319602 1.0273076
-0.20452087 -0.13522337 1.0247142
-0.19533947 -0.13555244 1.0248964
-0.18463053 -0.13443793 1.0241817
-0.17591292 -0.13376454 1.02575
-0.16933517 -0.13170514 1.0220001
-0.20606926 -0.12991323 1.0220001
-0.19478026 -0.12883809 1.0220002
-0.18367043 -0.12946525 1.0220002
-0.17410682 -0.12712425 1.0222145
-0.16792724 -0.12479351 1.0220002
-0.20830914 -0.11513001 1.0220001
-0.17276967 -0.11572731 1.0220002
-0.16840097 -0.11705045 1.0231252
-0.18367043 -0.099450819 1.0220001
-0.18239559 -0.14154187 1.031
-0.17986482 -0.14099956 1.031
-0.17335716 -0.1361188 1.031
-0.17497948 -0.11358599 1.07525
-0.17444928 -0.10569149 1.0769999
-0.02738093 -0.08025445 1.077
-0.028325099 -0.074589431 1.077
-0.029269271 -0.067980245 1.077
-0.082270198 -0.17121096 1.087
-0.078140803 -0.17057566 1.087
-0.076234929 -0.16866979 1.087
-0.052411515 -0.15151693 1.087
-0.18083879 -0.1107756 1.08
-0.1789452 -0.1107756 1.08
-0.031446911 -0.11530534 1.087
-0.029541036 -0.11244652 1.087
-0.031446911 -0.10387009 1.087
-0.02922339 -0.10514068 1.087
-0.034305722 -0.091481917 1.087
-0.02699987 -0.093070142 1.087
-0.034135189 -0.084559478 1.0863158
-0.028085608 -0.085121699 1.0842727
-0.033123031 -0.075818047 1.0841539
-0.028737718 -0.075791337 1.0806667
-0.032252565 -0.068295836 1.082
-0.10393146 -0.17440566 1.0967001
-0.095385559 -0.17377649 1.095174
-0.087276988 -0.17287736 1.0910001
-0.10194056 -0.16829808 1.097
-0.093898594 -0.16696408 1.0966667
-0.085096791 -0.16568397 1.0944231
-0.075723924 -0.16414836 1.0954815
-0.06347242 -0.16060446 1.097
-0.083283506 -0.157527 1.097
-0.073919237 -0.1557593 1.0964286
-0.064099617 -0.15458333 1.097
-0.056100585 -0.15296875 1.0925001
-0.072270863 -0.14742093 1.0955
-0.064347856 -0.14502555 1.09556
-0.054718584 -0.14495425 1.09504
-0.047505852 -0.14390779 1.0937272
-0.062495176 -0.13696624 1.0967273
-0.054760382 -0.13546646 1.0959201
-0.045310367 -0.13528582 1.09575
-0.039250121 -0.13210841 1.092
-0.053700905 -0.12661833 1.0960001
-0.045089941 -0.12567349 1.0942799
-0.036754098 -0.12478215 1.0914118
-0.050830886 -0.11892509 1.0940001
-0.044975493 -0.11567072 1.0932307
-0.03631153 -0.11562355 1.09
-0.043143686 -0.1049865 1.090889
-0.035780665 -0.10521852 1.09
-0.028666999 -0.1003345 1.09
-0.041635402 -0.095420159 1.09
-0.035537977 -0.095147133 1.09
-0.028428109 -0.09603446 1.09
-0.041089367 -0.088867702 1.09
-0.038859714 -0.085682482 1.09
-0.037166107 -0.074710235 1.0926001
-0.036072791 -0.068627506 1.0923333
-0.10906873 -0.17663343 1.1010001
-0.10153115 -0.16631594 1.103
-0.095759854 -0.16403463 1.102111
-0.087403379 -0.16222629 1.1036667
-0.070460327 -0.16312049 1.1010001
-0.067151032 -0.16312049 1.101
-0.092996806 -0.15983824 1.105
-0.083651006 -0.15628669 1.1018
-0.076573335 -0.15282491 1.101
-0.068529911 -0.15829444 1.1010001
-0.071425542 -0.14574671 1.1010001
-0.047295291 -0.10906873 1.1010001
