# .PCD v0.7 - Point Cloud Data file format
VERSION 0.7
FIELDS x y z
SIZE 4 4 4
TYPE F F F
COUNT 1 1 1
WIDTH 238
HEIGHT 1
VIEWPOINT 0 0 0 1 0 0 0
POINTS 238
DATA ascii
-0.052668378 -0.12104487 1.054
-0.048972353 -0.12104487 1.054
-0.075270616 -0.11522906 1.0599998
-0.064873978 -0.11589243 1.0584999
-0.055042215 -0.11916548 1.057
-0.048185106 -0.11953613 1.057
-0.10195896 -0.12066703 1.067
-0.096723944 -0.1247615 1.066
-0.081696279 -0.1214572 1.0630001
-0.075335033 -0.12276813 1.0609001
-0.065095343 -0.12275063 1.0607501
-0.057924289 -0.12235344 1.0600001
-0.083779439 -0.11489123 1.0636842
-0.054770373 -0.11441169 1.06036
-0.045937184 -0.11453933 1.0622499
-0.083002098 -0.10711516 1.0662
-0.075691141 -0.1048815 1.0629628
-0.065164819 -0.10519238 1.0618999
-0.055045113 -0.10448866 1.0642332
-0.046263322 -0.10495433 1.0653075
-0.075378738 -0.094834983 1.0642855
-0.065232769 -0.095053449 1.0629998
-0.055770319 -0.094765291 1.0662379
-0.048952773 -0.097593747 1.067
-0.081380092 -0.08699251 1.067
-0.075570948 -0.085829534 1.0642
-0.064990945 -0.085435554 1.0637691
-0.057149984 -0.086192988 1.0655456
-0.13261296 -0.17381312 1.0769999
-0.1283022 -0.17446162 1.077
-0.13312797 -0.16792738 1.077
-0.12651879 -0.16806225 1.077
-0.11172678 -0.15075247 1.077
-0.15012303 -0.14634635 1.077
-0.14507663 -0.14409509 1.0761303
-0.13663487 -0.1437836 1.0769999
-0.12486647 -0.14138946 1.077
-0.11405573 -0.14351383 1.0769999
-0.10650123 -0.14518966 1.0764285
-0.14475463 -0.13493434 1.0747142
-0.13467364 -0.13467838 1.0742799
-0.12529451 -0.13471909 1.0745999
-0.11489473 -0.13470803 1.0761427
-0.10588577 -0.13418545 1.076
-0.09876965 -0.13075221 1.0730001
-0.14420101 -0.1252352 1.0734615
-0.13451485 -0.12510821 1.0730001
-0.12503932 -0.12503974 1.0724
-0.11486735 -0.12522815 1.0739999
-0.10457547 -0.12533645 1.0721303
-0.098093525 -0.12625556 1.07075
-0.043270513 -0.12134557 1.0730001
-0.036822628 -0.12179793 1.077
-0.14100021 -0.11844008 1.07225
-0.13460675 -0.11704011 1.0753157
-0.12478583 -0.11544128 1.0733076
-0.11519904 -0.1153135 1.0732501
-0.10641999 -0.11769414 1.0718751
-0.093822561 -0.11363502 1.0733529
-0.088925414 -0.11334584 1.0715001
-0.040920671 -0.11632453 1.0712858
-0.034688305 -0.11497872 1.0735172
-0.02830757 -0.11511451 1.0763333
-0.1227421 -0.10857955 1.077
-0.11990959 -0.10763538 1.077
-0.10231914 -0.10231715 1.0735714
-0.094879426 -0.1042893 1.0733334
-0.086353511 -0.1036508 1.0712631
-0.041296083 -0.10417902 1.0706
-0.034982339 -0.10473942 1.0741153
-0.026480336 -0.10375901 1.0765294
-0.10302605 -0.097186215 1.0742
-0.095039062 -0.095553748 1.073409
-0.08543504 -0.095147908 1.0728332
-0.052060846 -0.092865296 1.0700001
-0.044640679 -0.094539776 1.0716666
-0.035544198 -0.095758177 1.0764284
-0.026007591 -0.097077847 1.0769999
-0.090989232 -0.087237097 1.0700001
-0.085154869 -0.087347277 1.0713333
-0.053917568 -0.084221713 1.0714666
-0.044995259 -0.085173436 1.0741212
-0.037092391 -0.086054347 1.0769999
-0.061143115 -0.079956383 1.0730001
-0.053716 -0.0777485 1.0749999
-0.045817021 -0.07718055 1.0744117
-0.12349301 -0.18202394 1.0845555
-0.10069364 -0.18074031 1.087
-0.14159569 -0.1710552 1.0840001
-0.13768636 -0.17337252 1.0806667
-0.12382952 -0.17545292 1.0823998
-0.11463536 -0.1730123 1.0856665
-0.10491189 -0.17370965 1.086423
-0.098152474 -0.17152861 1.087
-0.1425321 -0.16404125 1.087
-0.13596047 -0.16386157 1.0819999
-0.12439381 -0.16392666 1.0813333
-0.11499086 -0.16440976 1.0840398
-0.10575455 -0.16528033 1.0859565
-0.098152474 -0.16771686 1.087
-0.14398183 -0.15427092 1.0834705
-0.13508645 -0.15467796 1.0824285
-0.12481019 -0.154774 1.0831109
-0.11517563 -0.15511888 1.0824999
-0.10658922 -0.15440369 1.0834444
-0.14448169 -0.14599656 1.08
-0.13332666 -0.14572111 1.08
-0.12567486 -0.14651294 1.0804211
-0.1171665 -0.14651731 1.08
-0.11835 -0.1382328 1.08
-0.108882 -0.1391796 1.08
-0.02283629 -0.12085594 1.0855
-0.018105797 -0.12102295 1.087
-0.13341674 -0.11177921 1.0824001
-0.1282914 -0.111249 1.08
-0.1145628 -0.1107756 1.08
-0.022805255 -0.11499895 1.0840999
-0.016346527 -0.11559855 1.087
-0.13259305 -0.10816679 1.0855
-0.1250203 -0.10469421 1.0835651
-0.11544096 -0.10453863 1.0828259
-0.108882 -0.1013076 1.08
-0.022773871 -0.10762732 1.0826
-0.016819144 -0.10537405 1.0861111
-0.0076234937 -0.10005835 1.087
-0.12163925 -0.099782199 1.0840001
-0.11570093 -0.098559909 1.0862501
-0.091184288 -0.091184288 1.0835
-0.089946002 -0.091839597 1.08
-0.0317178 -0.093259797 1.08
-0.025375066 -0.093629234 1.0814117
-0.015182346 -0.095230885 1.0826665
-0.0077099907 -0.094525121 1.0842223
-0.093733199 -0.089946002 1.08
-0.033145234 -0.084284276 1.08025
-0.025208004 -0.084805638 1.0844481
-0.016002499 -0.086406618 1.0841199
-0.0072775022 -0.088901013 1.0826668
-0.056808002 -0.078584403 1.08
-0.035031598 -0.078584403 1.08
-0.028404001 -0.078584403 1.08
-0.1142358 -0.19103007 1.095
-0.12021291 -0.18849385 1.097
-0.11548045 -0.18477154 1.0939167
-0.10581637 -0.18450828 1.0910001
-0.11698866 -0.17787191 1.09
-0.10415676 -0.17869097 1.09
-0.098423369 -0.17869097 1.09
-0.1016996 -0.16340189 1.09
-0.098423369 -0.16531304 1.09
-0.10248452 -0.15790738 1.09
-0.01227923 -0.11366589 1.092909
-0.0086316597 -0.11221158 1.0940001
-0.13479546 -0.1048789 1.0936
-0.1290015 -0.10129007 1.09
-0.11944583 -0.10415676 1.09
-0.011483633 -0.10431387 1.0916002
-0.0082304971 -0.10507832 1.0916001
-0.0229336 -0.079312034 1.09
-0.11140241 -0.19277461 1.105
-0.10760365 -0.19144419 1.1018001
-0.13718519 -0.10240431 1.102
-0.061305787 -0.25443137 1.1676667
-0.057437968 -0.25693363 1.1658
-0.042017758 -0.25415617 1.169
-0.0614894 -0.24903207 1.169
-0.052502107 -0.26046321 1.1743335
-0.048496325 -0.26105466 1.177
-0.065607451 -0.25358617 1.1730001
-0.054096736 -0.25441226 1.1754001
-0.044758044 -0.25401214 1.1764001
-0.036114283 -0.25362545 1.177
-0.027426517 -0.25262675 1.1762002
-0.062831573 -0.24824658 1.1750001
-0.054650646 -0.24698934 1.1762002
-0.045307014 -0.24717177 1.177
-0.038177956 -0.24764079 1.177
-0.014445713 -0.2445453 1.177
-0.034580462 -0.2538662 1.181
-0.026918925 -0.25158843 1.1810001
-0.051422048 -0.24537636 1.1810001
-0.043404777 -0.24346496 1.181
-0.033697028 -0.24523439 1.1828333
-0.024957383 -0.24540134 1.1861664
-0.016997106 -0.24423426 1.187222
-0.0052117831 -0.24078439 1.189
-0.041554 -0.23997435 1.1850001
-0.034307472 -0.23826821 1.1860001
-0.024776015 -0.23629421 1.189
-0.017951699 -0.23661497 1.189
-0.0020847134 -0.23869967 1.189
0.023974203 -0.2115984 1.189
0.02477232 -0.20444603 1.1874001
0.027101273 -0.19909012 1.189
0.03231306 -0.17407356 1.189
-0.011504496 -0.24264029 1.1930001
-0.0087155281 -0.24229167 1.1930001
-0.024054857 -0.23322752 1.1930001
-0.014390264 -0.23433901 1.194
-0.0058699842 -0.23611808 1.1960003
0.0024485299 -0.23540866 1.197
-0.013800407 -0.22684747 1.1944546
-0.0052468493 -0.22540466 1.1970003
0.0073455898 -0.22141707 1.197
-0.0017489501 -0.21861875 1.197
0.0068209046 -0.21389659 1.1970001
0.015940426 -0.21432135 1.1970003
0.021963131 -0.21335611 1.1930001
0.0063514491 -0.2049585 1.1970003
0.015627801 -0.20472278 1.1954352
0.021977857 -0.20407732 1.1938
0.0083949603 -0.19833092 1.197
0.016501956 -0.19576053 1.1961582
0.025066014 -0.19506836 1.1944119
0.030380882 -0.19485494 1.1950001
0.018137626 -0.18598083 1.1954615
0.0251044 -0.18514815 1.1932002
0.031139856 -0.18449122 1.1939999
0.019506359 -0.17680386 1.1962001
0.025305167 -0.17515565 1.194895
0.03102728 -0.17570503 1.193
0.026234249 -0.16842389 1.197
-0.0031612602 -0.23182572 1.202
0.0048004319 -0.23170866 1.202
-0.01264504 -0.2212882 1.202
-0.0077977749 -0.22107744 1.202
0.0053603975 -0.22472435 1.2019998
0.014318647 -0.22382958 1.2019999
0.020021314 -0.22234195 1.202
-0.0033954275 -0.21578524 1.202
0.002692925 -0.21578525 1.202
-0.0010537533 -0.20969692 1.202
0.0021075066 -0.20758942 1.202
0.0089569036 -0.19547124 1.202
0.012020502 -0.19338532 1.2028
0.030558847 -0.19283687 1.202
0.013698793 -0.18862185 1.202
0.032666352 -0.18862185 1.202
