# .PCD v0.7 - Point Cloud Data file format
VERSION 0.7
FIELDS x y z
SIZE 4 4 4
TYPE F F F
COUNT 1 1 1
WIDTH 252
HEIGHT 1
VIEWPOINT 0 0 0 1 0 0 0
POINTS 252
DATA ascii
0.14855555 0.017521936 0.86900002
0.13789003 0.028187463 0.86900008
0.13738215 0.031742636 0.86900002
0.13598268 -0.0010262844 0.87800008
0.14351656 -0.002449088 0.8780002
0.12712352 0.0052581453 0.87680781
0.13470259 0.0053254715 0.87378711
0.14460066 0.0054575289 0.87313634
0.15421601 0.0073891431 0.87484002
0.16152817 0.0089589488 0.87599999
0.11892071 0.018088263 0.87800002
0.12531993 0.015324497 0.87519503
0.13522488 0.015279715 0.87147611
0.14498025 0.015206834 0.87105733
0.15510893 0.015280046 0.8715713
0.16434062 0.015671913 0.87562513
0.11677288 0.025173558 0.87708706
0.12486746 0.025279611 0.87385714
0.13483344 0.024855413 0.87118185
0.14508773 0.025199657 0.87104762
0.1551313 0.025219815 0.87169373
0.16485949 0.024892705 0.87540627
0.17010665 0.026170254 0.87800002
0.11815099 0.030403677 0.87800002
0.12511189 0.034562908 0.87497145
0.13494278 0.035506122 0.87187499
0.14530419 0.035179749 0.87233323
0.15536204 0.035205167 0.87299985
0.16491506 0.034298234 0.8763929
0.17010665 0.030788533 0.87800002
0.13569704 0.041797403 0.8759287
0.14479171 0.041743305 0.87633342
0.15476298 0.042035386 0.87510532
0.1628682 0.042105224 0.87677789
0.10988929 -0.00077935663 0.88900006
0.11685757 -0.00077392132 0.88279998
0.12112027 -0.00077146664 0.88000005
0.13796395 -0.0043716445 0.88000005
0.14587897 -0.0030047263 0.88144451
0.15146083 -0.0019431317 0.88600004
0.10874061 0.0051189815 0.88871431
0.11528932 0.004641491 0.88266653
0.12247034 0.0050145332 0.88000005
0.14889306 0.00077146664 0.88000005
0.15591405 0.0027301153 0.88246673
0.16390926 0.0059500537 0.88553339
0.17145847 0.008572923 0.88900006
0.10658701 0.015487859 0.88748479
0.11475742 0.014372226 0.88146657
0.12173744 0.011263413 0.88
0.16808197 0.012511348 0.8811
0.17506854 0.014834593 0.88407302
0.18230517 0.014859304 0.88700008
0.1055347 0.02483188 0.8852222
0.11233506 0.02400987 0.88052636
0.17519005 0.024408126 0.88289988
0.1832183 0.025368681 0.88808328
0.10747632 0.033846695 0.88699991
0.11498057 0.035205141 0.88266653
0.12446329 0.039087646 0.88000005
0.16841082 0.038128339 0.88040006
0.17470078 0.035139859 0.88469684
0.18241043 0.033594374 0.88900006
0.11798753 0.042717472 0.88592309
0.12515493 0.044629812 0.88382357
0.13450053 0.046449471 0.88610703
0.14488819 0.046711098 0.88187498
0.15510985 0.046805542 0.88026083
0.16605945 0.045745801 0.88199997
0.17364286 0.044240471 0.88694745
0.18283705 0.041929387 0.88900006
0.12848832 0.056702565 0.8882727
0.13476597 0.05505712 0.88729775
0.14424813 0.05447055 0.88656741
0.15515877 0.051931448 0.8854
0.16502413 0.052601881 0.88625002
0.1716274 0.051944878 0.88814294
0.12611254 0.064510748 0.88662845
0.13532683 0.064957656 0.88209516
0.14368425 0.064918779 0.88542104
0.12908216 0.070761904 0.88700002
0.13576892 0.072164349 0.88750005
0.14176357 0.071660921 0.88850009
0.15981108 -0.030702619 0.89800006
0.1653218 -0.030702619 0.89800006
0.15941745 -0.022436529 0.89800006
0.16374731 -0.025191894 0.89800018
0.17240702 -0.021255659 0.89800006
0.15902384 -0.014957686 0.89799994
0.1641257 -0.014653152 0.89737523
0.15670158 -0.0042910832 0.89659101
0.16444117 -0.0045114439 0.89720017
0.099980325 0.006297973 0.89800006
0.10412645 0.0052088103 0.89308697
0.16630046 0.0024624944 0.89478576
0.17370619 0.0054132319 0.89615792
0.18027948 0.008659713 0.89800006
0.098128453 0.01578982 0.8962
0.10231259 0.013387029 0.89174992
0.098030239 0.024931571 0.89610523
0.10076319 0.024995521 0.89099997
0.098744072 0.033440597 0.89750004
0.10361931 0.03595506 0.89320832
0.18428989 0.036712166 0.89099985
0.10569374 0.04315865 0.8951
0.11450347 0.045409866 0.89240003
0.12263427 0.049209934 0.89100003
0.17771125 0.046902385 0.89300001
0.18171273 0.045195762 0.89189994
0.11817262 0.056072187 0.89666659
0.12367678 0.054624036 0.89206082
0.14867125 0.058062509 0.89100003
0.15493155 0.057004001 0.89326316
0.1629222 0.057399582 0.89463633
0.17369333 0.053855389 0.89349997
0.11571359 0.065467373 0.89434111
0.12178215 0.066110313 0.89099985
0.14850205 0.06342274 0.89311123
0.15441531 0.064283468 0.89713353
0.16217281 0.060617995 0.89800006
0.11501659 0.072179481 0.89581817
0.12096597 0.071479894 0.89600003
0.14528647 0.071081012 0.89100003
0.14832382 -0.041127354 0.90800005
0.15489939 -0.044775043 0.90841305
0.16525967 -0.044263717 0.90629435
0.17469172 -0.04356575 0.90458065
0.18197165 -0.04277724 0.90555549
0.13877165 -0.0358206 0.90800005
0.14620112 -0.034493912 0.90800029
0.15438229 -0.034838304 0.90311897
0.16454561 -0.03500101 0.9013533
0.17465065 -0.034870319 0.90343237
0.18343291 -0.034171864 0.9065001
0.14668356 -0.025761889 0.90800023
0.15418357 -0.025418976 0.90263438
0.16729587 -0.02574998 0.90100002
0.17545438 -0.02539435 0.90117186
0.18450624 -0.025219403 0.90379316
0.14850871 -0.017387932 0.90728575
0.15378331 -0.015320379 0.90269238
0.16934958 -0.015955508 0.90100002
0.17547409 -0.015015962 0.90161943
0.18525226 -0.015042055 0.90304756
0.19207877 -0.014811502 0.90474993
0.15564843 -0.008098647 0.90125
0.16956019 -0.0057924292 0.90100002
0.17531717 -0.0049310434 0.90200019
0.18536028 -0.0046952381 0.90556759
0.19179887 -0.0044510388 0.90492314
0.09605322 0.0076549803 0.90308338
0.1773887 0.0026144222 0.90176928
0.18438804 0.0043516899 0.906762
0.1910432 0.00079601334 0.90800005
0.089153491 0.019900333 0.90800005
0.094369113 0.014671419 0.90462512
0.088420413 0.025234966 0.9054001
0.093230464 0.025481498 0.90226096
0.089602783 0.031719115 0.90450001
0.095123693 0.034375943 0.90305269
0.10031433 0.038703956 0.90100002
0.097822577 0.043202061 0.90607697
0.10194162 0.044420995 0.903
0.18088175 0.04976223 0.90100002
0.11729668 0.054896429 0.90100002
0.11244148 0.061762262 0.90325004
0.15876521 0.064769886 0.90100002
0.1639276 0.063797489 0.90194732
0.16598588 -0.060962081 0.9180001
0.17141815 -0.061968058 0.91800004
0.14782329 -0.051493894 0.91571432
0.15504609 -0.052899931 0.9141925
0.16522829 -0.054519765 0.91516674
0.17242205 -0.052429426 0.91600001
0.14543165 -0.044766847 0.91232264
0.16314329 -0.048264883 0.91000003
0.17231759 -0.048663765 0.91000003
0.18508187 -0.040686101 0.91000003
0.13960917 -0.037495032 0.91000003
0.1423447 -0.036400344 0.9102307
0.18673928 -0.036618616 0.91085714
0.19234242 -0.03138642 0.91800004
0.14280023 -0.0287196 0.91000003
0.1890707 -0.029517366 0.91000003
0.1919664 -0.024516542 0.9127273
0.18847238 0.0053849253 0.90999997
0.19270085 0.0051923874 0.91112494
0.088908903 0.016815929 0.91366673
0.091035932 0.014022044 0.91163635
0.09301959 0.035580393 0.91000003
0.096209124 0.044309583 0.91075003
0.15859702 -0.061979312 0.92616671
0.16206068 -0.063400932 0.92390919
0.14607623 -0.054069817 0.92606682
0.15501191 -0.057984348 0.92353857
0.16156834 -0.058972925 0.92150003
0.1756372 -0.055796504 0.9224
0.14295147 -0.047921669 0.92650008
0.19753206 -0.031297222 0.92725003
0.19844413 -0.024907228 0.92500001
0.20306125 -0.022453889 0.92800009
0.20354009 -0.018651083 0.92500001
0.14608298 -0.063500643 0.93579996
0.1540004 -0.064247116 0.93378264
0.13690826 -0.054160878 0.93676174
0.14319429 -0.056803878 0.9320001
0.15164579 -0.059516899 0.93000007
0.13934463 -0.048220392 0.93225002
0.1410469 -0.048102695 0.93000007
0.19684124 -0.043407582 0.9359501
0.20340648 -0.042565234 0.93369997
0.19764209 -0.035826076 0.93224996
0.20473929 -0.034599036 0.93176496
0.2113294 -0.033243604 0.9318462
0.20588155 -0.025144668 0.93047845
0.21144995 -0.025901515 0.93127275
0.14860669 -0.067298777 0.94000006
0.15300171 -0.068397529 0.94000006
0.13514693 -0.051916201 0.94000006
0.19420505 -0.045873046 0.94000006
0.1619177 -0.011020577 0.96700007
0.1579842 -0.012381712 0.97412503
0.16071931 -0.011054766 0.97000003
0.15721588 -0.0089189559 0.97542858
0.16159841 -0.0080039669 0.97119999
0.077165075 -0.080633171 0.98900002
0.084968284 -0.080633171 0.98900002
0.066760793 -0.07456401 0.98900002
0.075708486 -0.073835723 0.98900014
0.083234243 -0.075431027 0.98900014
0.056356516 -0.068494841 0.98900002
0.075431027 -0.068494841 0.98900002
0.084968284 -0.061558656 0.98900002
0.1539418 -0.01204014 0.98100007
0.07913845 -0.080877759 0.99200004
0.085253112 -0.081946328 0.99230003
0.09513355 -0.082007304 0.99227273
0.10443909 -0.082971118 0.99405271
0.11158594 -0.081866927 0.99700004
0.065584317 -0.072311379 0.99219984
0.072355159 -0.076181628 0.99199998
0.087417088 -0.073716424 0.99218738
0.094926499 -0.074892953 0.99340028
0.10448685 -0.075286224 0.99517667
0.11147373 -0.077422231 0.99600005
0.058266774 -0.067832962 0.99200004
0.064920589 -0.065095752 0.99270028
0.074745312 -0.064441897 0.9934119
0.085137285 -0.065894917 0.99407709
0.094258882 -0.067622714 0.99472731
0.10087979 -0.068702616 0.99200004
0.08097595 -0.060731959 1.0040001
