# .PCD v0.7 - Point Cloud Data file format
VERSION 0.7
FIELDS x y z
SIZE 4 4 4
TYPE F F F
COUNT 1 1 1
WIDTH 259
HEIGHT 1
VIEWPOINT 0 0 0 1 0 0 0
POINTS 259
DATA ascii
0.14606728 0.077303283 0.76900005
0.15505603 0.078876331 0.76900005
0.13820213 0.087715276 0.76900005
0.14544384 0.085539088 0.76859558
0.15556714 0.085119382 0.7684288
0.16253704 0.086077504 0.76872736
0.1388723 0.094706625 0.76869237
0.14534888 0.094606042 0.7678656
0.15529637 0.094907813 0.76779598
0.16578124 0.092359468 0.76900005
0.17056164 0.093707778 0.76900005
0.13955043 0.10044935 0.76900005
0.14552154 0.10102719 0.76900005
0.15378207 0.10099096 0.76845461
0.16247176 0.11123585 0.76900005
0.1358943 0.066563703 0.77758831
0.14509423 0.06730894 0.77517962
0.15512428 0.068310559 0.77417397
0.16440146 0.068718828 0.77527785
0.17009349 0.069799326 0.77300006
0.12722485 0.076078258 0.77729416
0.13517444 0.074792482 0.77474195
0.14418776 0.073821947 0.77177787
0.15493067 0.074872233 0.77217382
0.16459934 0.075184077 0.77265322
0.17359467 0.076387726 0.7730003
0.12639505 0.085245579 0.77649999
0.13480914 0.084447637 0.77184319
0.14231659 0.083737746 0.77099997
0.15117854 0.082010411 0.77099997
0.16766328 0.084537126 0.77145457
0.17447954 0.08475399 0.77318364
0.18177964 0.085861765 0.77694118
0.12687889 0.09410964 0.77621627
0.13422073 0.095159762 0.77262801
0.14396884 0.099358767 0.77100003
0.16550471 0.096608512 0.77099997
0.17507978 0.094998434 0.77210885
0.18296114 0.094885707 0.77707154
0.1357287 0.1021397 0.77672219
0.14550909 0.10599279 0.77400005
0.1551276 0.10609284 0.77216679
0.16474003 0.10476602 0.77099997
0.17488849 0.10512993 0.77365965
0.18400228 0.10464891 0.77680957
0.19097306 0.10639928 0.77800006
0.14823936 0.11129371 0.77566671
0.15555567 0.11185808 0.77605885
0.16513227 0.11166883 0.77252936
0.17455602 0.11261118 0.7757501
0.18074237 0.11185566 0.77800006
0.13792145 0.12718077 0.77787495
0.14237724 0.12771325 0.778
0.18299891 0.12177251 0.77600002
0.12890682 0.13368115 0.77800006
0.13492608 0.13213906 0.77782607
0.14215802 0.13144013 0.778
0.11906948 0.066698685 0.78900003
0.12511344 0.065560095 0.78477371
0.13151012 0.064343832 0.78177786
0.11796891 0.075499833 0.78738087
0.12264393 0.074094549 0.78212512
0.11713919 0.085721247 0.78577781
0.12126654 0.083931148 0.78105265
0.18732509 0.086124226 0.78248
0.19240719 0.086798877 0.78350002
0.1171421 0.094367385 0.78477782
0.12250159 0.096224733 0.78065002
0.18820176 0.094694436 0.7800526
0.19199735 0.095013887 0.78112507
0.11910013 0.10159252 0.78833342
0.12514991 0.10513602 0.78557694
0.13409297 0.10676993 0.78296977
0.1402389 0.10740307 0.78033334
0.18882649 0.10364454 0.78000009
0.191388 0.1032538 0.78000009
0.12699524 0.11409948 0.78800011
0.13502601 0.1150522 0.78585714
0.14496495 0.11580183 0.78446162
0.15390077 0.11691321 0.78265226
0.16823584 0.11695961 0.78200001
0.17540264 0.11774239 0.78015393
0.18482882 0.11508513 0.78065127
0.1904649 0.11345498 0.78433341
0.12598383 0.12536487 0.78415704
0.13421611 0.123901 0.78163064
0.14541291 0.12388763 0.78300005
0.15349244 0.1246025 0.78714281
0.16814092 0.12233716 0.78518182
0.1740012 0.12325204 0.78238475
0.18212096 0.12151226 0.78057152
0.12562996 0.13174979 0.78058815
0.13106167 0.13106167 0.78000003
0.14574321 0.13137376 0.78050005
0.17909248 0.039876059 0.79800004
0.1853887 0.039876059 0.79800004
0.17697574 0.046092566 0.79666674
0.18486036 0.045337595 0.79571438
0.19497052 0.045809753 0.79876196
0.16964816 0.056665979 0.79800004
0.1751378 0.055005636 0.79544014
0.18455668 0.05508101 0.79404157
0.19314384 0.05500643 0.79683876
0.10928351 0.066126965 0.79400003
0.11492634 0.067141362 0.79124153
0.16999795 0.065060936 0.79800004
0.17549168 0.064618513 0.79600018
0.18476334 0.064840741 0.79530644
0.19303565 0.065404482 0.79689664
0.10934708 0.076155603 0.79699999
0.11308921 0.075088374 0.79194754
0.17752567 0.072176225 0.79461551
0.18550004 0.074261852 0.79651165
0.1931816 0.07336399 0.79771441
0.10803291 0.084771059 0.79460871
0.11211395 0.084772184 0.79080003
0.18755211 0.081194915 0.79466671
0.19166972 0.08164338 0.796
0.1082656 0.094046719 0.79612511
0.11235029 0.095691413 0.7920801
0.10983406 0.10213868 0.79800004
0.115371 0.1052176 0.79400015
0.11671815 0.11115308 0.79457146
0.12628756 0.11530837 0.79190916
0.11856449 0.12691738 0.79399997
0.12219314 0.12395668 0.79072726
0.15758017 0.12537198 0.79076922
0.1619743 0.12694347 0.79222226
0.16146679 0.13071217 0.79733342
0.16675535 0.027387852 0.80763167
0.17541212 0.025644265 0.80635709
0.18474367 0.025835702 0.80638885
0.19198251 0.02724261 0.80611116
0.15957525 0.039007284 0.80900002
0.16564183 0.034722123 0.80513716
0.17469625 0.035004068 0.80065447
0.18459344 0.034713231 0.80061537
0.19385283 0.035738777 0.80074447
0.20158501 0.03766536 0.80200005
0.15963539 0.046628147 0.80360001
0.16501464 0.04485302 0.80281717
0.1726311 0.044790171 0.80023068
0.20351888 0.045052908 0.80260599
0.16650793 0.054798618 0.80073333
0.170424 0.054002665 0.80000001
0.1987111 0.055717036 0.80000013
0.2053692 0.055493612 0.80334997
0.21092664 0.056896798 0.80700004
0.10827973 0.068116128 0.801
0.11010933 0.068730667 0.80000001
0.16873258 0.063386835 0.80112505
0.17120324 0.066159107 0.80000007
0.1984072 0.064592801 0.80000007
0.20517552 0.06534671 0.80149984
0.21187781 0.06531091 0.80600005
0.10669406 0.075717159 0.80315387
0.11010933 0.070834666 0.80000001
0.19676864 0.076018475 0.80041665
0.20500328 0.075462915 0.80250019
0.21152177 0.072808392 0.80480015
0.1050141 0.085096039 0.80216682
0.1971218 0.082389206 0.80208343
0.2043006 0.084579661 0.80670583
0.21011859 0.082773991 0.80700004
0.1048318 0.093632318 0.80546677
0.10870667 0.103096 0.80000001
0.11046 0.10765467 0.80000001
0.11298524 0.11193325 0.80050004
0.16250147 0.13577189 0.80244458
0.16821188 0.018876094 0.81766677
0.17543352 0.016664855 0.81454295
0.18489699 0.015859194 0.81469703
0.19144754 0.016459027 0.81655568
0.16536556 0.023660015 0.81415391
0.17352827 0.021149581 0.81154543
0.18686837 0.021447795 0.81099993
0.19260779 0.022483869 0.81242853
0.16169021 0.0327641 0.8125
0.21773595 0.058015171 0.81700003
0.099069469 0.089091249 0.81300002
0.10288661 0.08688084 0.81284618
0.20831616 0.086028174 0.81100005
0.099069469 0.092892475 0.81300002
0.10151806 0.093545772 0.81206667
0.20364404 0.091512851 0.81099999
0.16747576 0.0094250431 0.82700002
0.17192967 0.0090673631 0.82749999
0.1926396 0.0093794568 0.82300001
0.16549411 0.014757322 0.82544994
0.17248468 0.012597948 0.82471424
0.18952306 0.011529043 0.82200003
0.19184768 0.011284746 0.82166672
0.16338174 0.020872556 0.82100004
0.22361168 0.037884604 0.82689488
0.21710031 0.045652285 0.82569242
0.22439818 0.045497507 0.8238166
0.23107839 0.048457749 0.82500005
0.21708363 0.053337753 0.82118183
0.22468267 0.054185342 0.82408577
0.23198952 0.053562287 0.82566667
0.21980926 0.029940797 0.83300006
0.21680954 0.034771387 0.83352941
0.22162676 0.034700397 0.83160001
0.21582107 0.04061443 0.83099997
0.23351331 0.046117049 0.83500004
0.059422221 0.06844838 0.85800004
0.060926579 0.067696199 0.85800004
0.048126083 0.073382847 0.85999995
0.058218729 0.07837715 0.85799998
0.061170645 0.075601272 0.85720003
0.05867004 0.081987619 0.85800004
0.060926579 0.081987619 0.85800004
0.064754985 0.046471223 0.86900002
0.048728641 0.058070395 0.86400002
0.055011693 0.055300608 0.86686122
0.062350366 0.056419875 0.86789483
0.046637684 0.065165438 0.86270833
0.054946192 0.064846285 0.86215007
0.062443711 0.062227309 0.86114281
0.05454893 0.074292533 0.86004674
0.062576465 0.077152513 0.86000007
0.055133365 0.082101271 0.8601175
0.061068598 0.080670863 0.86000001
0.057728495 0.037715957 0.87800014
0.062566698 0.038375709 0.87800014
0.04974645 0.045915123 0.87299997
0.055060174 0.045104381 0.87427902
0.0626847 0.04510409 0.87446171
0.058795404 0.051159635 0.87100005
0.062940545 0.051814128 0.87100017
0.054002665 0.038573332 0.88000005
0.13776816 -0.01062783 0.89800006
0.1406033 -0.010211414 0.89600003
0.1298957 -0.0015744934 0.89800006
0.1357166 -0.0044133528 0.8980003
0.14213467 -0.0045643942 0.89773333
0.1298957 0.0031489865 0.89800006
0.13473168 0.0028327731 0.89770001
0.14144199 0.0013120779 0.89800006
0.10905383 -0.010348173 0.90800005
0.11577069 -0.010878158 0.90400004
0.12480051 -0.011058274 0.90100002
0.13313811 -0.011146038 0.90100002
0.096014373 -0.0029187151 0.90800023
0.10521322 -0.004321117 0.90621889
0.11470322 -0.0047491132 0.90238118
0.12480048 -0.0047392594 0.90100044
0.13123237 -0.00710889 0.90100002
0.096879512 0.0030435801 0.90800005
0.1049127 0.0046519944 0.90565735
0.11485291 0.004756961 0.90352386
0.12452558 0.0039591165 0.90237939
0.10709638 0.011398566 0.90716672
0.11198526 0.01082844 0.90383333
0.09440238 0.0029251445 0.91000003
0.10131636 0.0087754335 0.91000003
0.1053052 0.0119665 0.90999997
0.21836714 0.011941953 0.97300005
0.22268592 0.011646223 0.97200006
