# .PCD v0.7 - Point Cloud Data file format
VERSION 0.7
FIELDS x y z
SIZE 4 4 4
TYPE F F F
COUNT 1 1 1
WIDTH 227
HEIGHT 1
VIEWPOINT 0 0 0 1 0 0 0
POINTS 227
DATA ascii
-0.045952238 -0.1413248 0.98900002
-0.054622471 -0.13959076 0.98900002
-0.045952238 -0.13959076 0.98900002
-0.043494381 -0.15306848 0.99772733
-0.037621278 -0.15285985 0.99800009
-0.060187548 -0.14043762 0.99500006
-0.054002404 -0.14162049 0.99350005
-0.044872019 -0.14452051 0.99364543
-0.036643717 -0.14449812 0.99630445
-0.02887214 -0.14086105 0.99800003
-0.063015081 -0.13376218 0.99366653
-0.054802254 -0.1348297 0.99224007
-0.045264054 -0.13493215 0.99300021
-0.035041161 -0.13447991 0.99709088
-0.027372286 -0.13373676 0.99800009
-0.062810488 -0.12699972 0.99588239
-0.055423841 -0.12749988 0.99466664
-0.044876542 -0.12602223 0.99528134
-0.035133831 -0.12526929 0.99790293
-0.027997227 -0.12686244 0.99800009
-0.043891478 -0.1157802 0.99799985
-0.035638135 -0.11578016 0.99799973
-0.042870753 -0.10936417 0.99800003
-0.0327923 -0.16133676 1.002
-0.025373509 -0.16239069 1.0040001
-0.033461109 -0.15486735 1.0009999
-0.024711132 -0.15475951 1.0038285
-0.017029116 -0.15408015 1.0060769
-0.031942576 -0.14549668 1.0010002
-0.024438957 -0.14503612 1.0018275
-0.015816864 -0.14571127 1.005421
-0.031591561 -0.13952939 1.001
-0.022744602 -0.13583475 1.0014091
-0.018262969 -0.13514642 1.0057143
-0.072273761 -0.12586127 1.0040001
-0.067312948 -0.12569587 1.0015001
-0.023869179 -0.12408464 1.0009998
-0.016534857 -0.12446315 1.0044999
-0.06523145 -0.11723795 1.0055001
-0.050019968 -0.11583572 1.001
-0.047562849 -0.11530919 1.001
-0.031884074 -0.11437315 1.001
-0.025546907 -0.11567283 1.001913
-0.01713971 -0.11820579 1.0025001
-0.043821096 -0.1055579 1.00175
-0.037070662 -0.10793714 1.0033572
-0.04475471 -0.099162392 1.001
-0.118812 -0.17062476 1.0190001
-0.014042972 -0.1717774 1.0142
-0.007671535 -0.17203023 1.0178001
-0.12119421 -0.16586037 1.0190001
-0.11657869 -0.1659348 1.0190001
-0.021974847 -0.165737 1.0100001
-0.015271596 -0.1647561 1.0123574
-0.0071334355 -0.16502152 1.0175
0.0089332331 -0.16169152 1.0190001
-0.14305936 -0.15199257 1.0190001
-0.12119421 -0.15692714 1.0190001
-0.115651 -0.1548885 1.0190004
-0.10790029 -0.15352999 1.0187273
-0.01288174 -0.15578732 1.0135
-0.0056200381 -0.15430911 1.0166209
0.0052867387 -0.15468095 1.0153825
0.011544824 -0.15008271 1.013
-0.14269184 -0.14512673 1.0184548
-0.136153 -0.14329956 1.0190001
-0.12059865 -0.14025176 1.0190001
-0.11521832 -0.14508496 1.0181928
-0.10533935 -0.14517969 1.0168278
-0.098866962 -0.14340162 1.016
-0.013131501 -0.14373501 1.0121
-0.0053353938 -0.14501153 1.0148003
0.0052603399 -0.14500745 1.0163873
0.011553371 -0.14574824 1.0137501
-0.14025176 -0.13846512 1.0190001
-0.13667847 -0.1375718 1.0190001
-0.12159124 -0.13389924 1.0190001
-0.11466499 -0.13501093 1.0155717
-0.10480857 -0.13501108 1.0131669
-0.097126931 -0.13500978 1.0113639
-0.013968367 -0.13536438 1.0134093
-0.005344159 -0.13538541 1.0160002
0.0027717762 -0.1352101 1.0161667
-0.14025176 -0.12238529 1.0190001
-0.13435583 -0.12202798 1.0190001
-0.12464812 -0.12481085 1.0189096
-0.11508196 -0.12489047 1.0176003
-0.10502737 -0.12460098 1.0152501
-0.095170788 -0.12506892 1.0130004
-0.088074535 -0.12312739 1.0122499
-0.075835668 -0.12295939 1.0142858
-0.067824192 -0.12201271 1.01
-0.012662793 -0.12641905 1.01375
-0.0064327847 -0.12697329 1.016
0.00089069334 -0.12915054 1.016
-0.13408783 -0.11559604 1.0190003
-0.12494446 -0.11512718 1.0180002
-0.11484557 -0.11484896 1.0155202
-0.10512249 -0.11492399 1.0162003
-0.095013745 -0.11543693 1.0129002
-0.087498479 -0.11536106 1.0122502
-0.071971267 -0.11580167 1.0135
-0.068646394 -0.11713964 1.010375
-0.13166854 -0.10845923 1.01825
-0.12412763 -0.10573085 1.0165359
-0.11502808 -0.1051444 1.0156132
-0.10522072 -0.10521856 1.017167
-0.094916582 -0.10481684 1.0154378
-0.086476862 -0.10505623 1.0152802
-0.070157006 -0.10923179 1.013
-0.065850958 -0.10807678 1.0105001
-0.12059865 -0.098265566 1.0190001
-0.11484167 -0.09528783 1.0190002
-0.10584503 -0.097189896 1.0185385
-0.094362646 -0.098530903 1.0186667
-0.08595676 -0.096834771 1.0184546
-0.12470309 -0.17195794 1.0254285
-0.11760309 -0.17206277 1.024
-0.0023389466 -0.17229025 1.0267999
0.0030641253 -0.17068981 1.028
-0.13357513 -0.16419254 1.0272
-0.12508231 -0.16507643 1.0233749
-0.11259147 -0.16261552 1.0220002
-0.10841035 -0.1612716 1.0220001
-0.0025396303 -0.16423173 1.0227503
0.0047349962 -0.16523305 1.024318
-0.14253969 -0.15634736 1.0226002
-0.1347983 -0.15521856 1.025107
-0.12554049 -0.15492262 1.0241817
-0.11289012 -0.15858375 1.0220001
-0.1075144 -0.15589587 1.0220002
-0.00403179 -0.15813577 1.0220001
-0.1336349 -0.14700529 1.0220002
-0.12553889 -0.14514446 1.0219998
-0.11916179 -0.14604039 1.0220001
0.0086608827 -0.14126197 1.0220001
-0.14291677 -0.13461211 1.0236876
-0.13472308 -0.13444014 1.0220001
-0.12692671 -0.1357156 1.022
0.0080635799 -0.13887277 1.0220001
-0.14188981 -0.1270954 1.0227501
-0.13555776 -0.12695658 1.0220001
-0.12991323 -0.12812133 1.0220001
-0.081531756 -0.10124273 1.0220001
-0.1229085 -0.096192807 1.0220002
-0.11532199 -0.093947098 1.0220002
-0.10528437 -0.094318092 1.0223532
-0.094971061 -0.095483027 1.0220002
-0.08556354 -0.097210936 1.0220001
-0.13333519 -0.17226818 1.0328751
-0.12704448 -0.17502795 1.0326667
-0.13598734 -0.16589636 1.031
-0.1355765 -0.15998027 1.031
-0.13087931 -0.1784718 1.044
-0.14226985 -0.16980594 1.0470001
-0.091361813 -0.28562587 1.097
-0.086133383 -0.28383988 1.09475
-0.12098227 -0.27177736 1.097
-0.1173278 -0.27384505 1.097
-0.1222966 -0.2644684 1.097
-0.11764839 -0.26575068 1.097
-0.10432263 -0.28207907 1.1079999
-0.094744056 -0.28361225 1.1055623
-0.086533576 -0.2831195 1.1060001
-0.074793696 -0.28460458 1.108
-0.063354075 -0.28848383 1.105
-0.051481374 -0.28557593 1.108
-0.041767906 -0.28557593 1.108
-0.038853865 -0.28460458 1.108
-0.11344077 -0.27505633 1.1038888
-0.10528503 -0.27455232 1.1063331
-0.094502814 -0.27491286 1.1072499
-0.086409964 -0.27347019 1.1075
-0.07770773 -0.27100572 1.108
-0.043710601 -0.27489111 1.108
-0.035076406 -0.27402771 1.1079999
-0.023312319 -0.27197707 1.108
-0.12644251 -0.26157191 1.1010001
-0.11424828 -0.26471645 1.1039472
-0.10557537 -0.26442164 1.1048397
-0.095301755 -0.26572061 1.104476
-0.084050909 -0.26620162 1.1051874
-0.076828346 -0.26559415 1.1065
-0.052128941 -0.26647279 1.108
-0.047110312 -0.26663464 1.108
-0.031499382 -0.26545516 1.1079999
-0.024283666 -0.26323494 1.108
-0.11099915 -0.2596415 1.1010001
-0.022340974 -0.25789255 1.108
-0.015735816 -0.25662977 1.108
-0.0049589812 -0.25485069 1.1079999
0.0025847787 -0.25425383 1.1062499
-0.0048567331 -0.2496361 1.108
0.001618911 -0.24898852 1.108
-0.071164295 -0.29148114 1.1120001
-0.068239734 -0.29148114 1.1120001
-0.059626482 -0.29031256 1.115
-0.1004099 -0.28270745 1.1120001
-0.096510477 -0.28173262 1.1120001
-0.083079167 -0.28346571 1.1120001
-0.074755855 -0.28501633 1.1120001
-0.065610513 -0.28445303 1.1133332
-0.055992629 -0.28459677 1.1139997
-0.045980938 -0.28332347 1.1134211
-0.036114082 -0.28208178 1.1133847
-0.1004099 -0.27978289 1.1120001
-0.090661362 -0.2758835 1.1120001
-0.084231563 -0.27641171 1.1124736
-0.074689642 -0.27579334 1.1131537
-0.065456979 -0.2745246 1.1143999
-0.055705849 -0.27447265 1.1132691
-0.045717087 -0.27459338 1.1131537
-0.034964472 -0.27400514 1.1122859
-0.024780739 -0.27366909 1.1129
-0.016417531 -0.27260953 1.1163334
-0.072835878 -0.26837769 1.1152501
-0.065702133 -0.26869482 1.1186001
-0.05705785 -0.26741579 1.1138572
-0.043912299 -0.26535884 1.1131539
-0.035273422 -0.26457697 1.1127895
-0.024380477 -0.26465818 1.1124285
-0.014488377 -0.26492584 1.1144166
-0.006125987 -0.26293623 1.1134547
-0.02496521 -0.25789657 1.1137142
-0.013452977 -0.25619143 1.1120002
-0.0042243642 -0.25638643 1.1120001
-0.0048826826 -0.24885586 1.1132001
