# .PCD v0.7 - Point Cloud Data file format
VERSION 0.7
FIELDS x y z
SIZE 4 4 4
TYPE F F F
COUNT 1 1 1
WIDTH 301
HEIGHT 1
VIEWPOINT 0 0 0 1 0 0 0
POINTS 301
DATA ascii
0.096038245 -0.04348857 0.82856536
0.10553814 -0.043907683 0.82803226
0.11390705 -0.043714505 0.82854563
0.12282187 -0.041425131 0.82900006
0.08710698 -0.033880707 0.82900029
0.095032379 -0.035549883 0.82753044
0.10490685 -0.035452165 0.82528603
0.11537667 -0.03555353 0.82769394
0.12257964 -0.035691831 0.82900023
0.086660229 -0.025656711 0.82900035
0.094935581 -0.025362873 0.82667339
0.10493012 -0.025323449 0.82544911
0.11541273 -0.025514735 0.82862502
0.12173174 -0.025799863 0.82900006
0.088145196 -0.018584207 0.82900006
0.095966488 -0.017961275 0.82900029
0.10436225 -0.017950892 0.82900029
0.11347787 -0.01920714 0.82900006
0.098822251 -0.060757384 0.83500004
0.10101829 -0.061489396 0.83500004
0.065422565 -0.051455509 0.83850002
0.078700997 -0.050751109 0.83900005
0.084432475 -0.053064391 0.83606648
0.09499944 -0.053720042 0.83427769
0.10447866 -0.054679498 0.83543473
0.11443891 -0.052467059 0.83443999
0.12501919 -0.051833309 0.83666664
0.13165867 -0.050751109 0.83900005
0.069833077 -0.042636245 0.83850002
0.075930648 -0.044224054 0.83713973
0.085503362 -0.044584423 0.83365303
0.09438429 -0.047058593 0.83121061
0.10432263 -0.048227362 0.83099997
0.11608429 -0.047376413 0.8314001
0.12515301 -0.044924475 0.83331114
0.13355449 -0.043731373 0.83804357
0.068271652 -0.033917706 0.83739996
0.075181134 -0.034682155 0.83473891
0.083191633 -0.035991888 0.83138102
0.12719786 -0.034749929 0.83100015
0.13490812 -0.034642357 0.83539993
0.14152434 -0.032824233 0.83881831
0.067565791 -0.024970314 0.83774996
0.075494684 -0.025197951 0.8339777
0.081866309 -0.025042532 0.83100009
0.1255092 -0.025348406 0.83099979
0.13443366 -0.025138093 0.83431578
0.14175984 -0.025252966 0.83899999
0.068258971 -0.016901566 0.83829409
0.075557023 -0.01540083 0.83679599
0.084780507 -0.014946027 0.83404988
0.094697364 -0.013185188 0.83266664
0.10566903 -0.013366319 0.83175009
0.11494632 -0.014451019 0.83274996
0.12489145 -0.015331916 0.83312225
0.13422942 -0.015644474 0.8336153
0.14048496 -0.018388083 0.83900005
0.076126665 -0.0095618032 0.83900005
0.085425615 -0.0088243801 0.83883339
0.095535778 -0.0063880635 0.8375296
0.10498537 -0.005133491 0.83744943
0.11483198 -0.0055810018 0.83779103
0.12501787 -0.0074286973 0.83748007
0.13315427 -0.0076203146 0.83799994
0.095756315 0.0060560382 0.83711427
0.10479692 0.0051238649 0.83593893
0.11347502 0.0054682223 0.83751613
0.095456026 0.014693858 0.83672971
0.10458789 0.014328058 0.83673686
0.11308497 0.013382777 0.83563155
0.099295646 0.021330176 0.83900005
0.06807521 -0.051363606 0.84100002
0.074357629 -0.052502692 0.84230006
0.12607431 -0.053821195 0.84100002
0.13513671 -0.050952744 0.84233332
0.1418245 -0.051235031 0.84700006
0.058184367 -0.043191087 0.84660006
0.064797372 -0.044800889 0.84345442
0.072335027 -0.048578337 0.84100002
0.13750242 -0.046051297 0.84212494
0.14178813 -0.045476865 0.84512508
0.058302715 -0.035974015 0.84900004
0.0630804 -0.035121754 0.84438896
0.14294975 -0.034979682 0.84100002
0.05877912 -0.024552805 0.84871435
0.062006898 -0.024745809 0.84361547
0.14534882 -0.025067408 0.8409999
0.058798909 -0.018607249 0.84900004
0.063513234 -0.014718501 0.8441667
0.070041284 -0.01105915 0.84100002
0.13885377 -0.011550668 0.84100002
0.14258425 -0.015491688 0.84162498
0.065656185 -0.006430631 0.8458389
0.074620098 -0.0047810073 0.84460008
0.084783308 -0.0039739301 0.8437565
0.093298897 -0.0023110688 0.84153336
0.11821003 -0.0017203124 0.84100002
0.12472197 -0.0022891522 0.84330004
0.1352174 -0.0039424305 0.84224123
0.1413568 -0.0084900782 0.84200001
0.077034011 0.00074429001 0.84900004
0.086294398 0.0045671561 0.8463158
0.092510618 0.002847414 0.84228575
0.11803129 0.004222584 0.84099996
0.12333424 0.0049326392 0.84589678
0.13406521 0.0014033485 0.847
0.087218016 0.014786535 0.84646159
0.091831699 0.016133046 0.84185714
0.10585187 0.018853217 0.84100002
0.11206605 0.018431917 0.84100002
0.087826222 0.021584412 0.84900004
0.094613902 0.021909831 0.84633338
0.10483647 0.022263534 0.84344465
0.111249 0.020767357 0.84600002
0.11859372 -0.071958557 0.85800004
0.1241097 -0.072209284 0.85800004
0.11839314 -0.068749249 0.85799998
0.12862279 -0.057917859 0.85800004
0.054770537 -0.034357384 0.85265517
0.054874688 -0.024951238 0.85469705
0.053785183 -0.014680277 0.85786211
0.058376227 -0.0063290321 0.85685712
0.063028835 -0.0030706704 0.85255551
0.065785356 0.0030043365 0.85600013
0.075509064 0.004379035 0.8544516
0.081900433 0.0074292244 0.85293329
0.12833564 0.0052414299 0.85336363
0.13384621 0.0049639372 0.85476184
0.039865538 0.018052321 0.85800004
0.045373973 0.016605008 0.85507703
0.054629542 0.016071428 0.85278565
0.061661012 0.016542919 0.85774994
0.077736877 0.016146228 0.85675001
0.082110271 0.015019689 0.85290909
0.038786948 0.021518951 0.85633332
0.04563342 0.021696666 0.8534286
0.054994047 0.021087948 0.85207689
0.06078456 0.021011947 0.85600007
0.079826638 0.020889213 0.85100001
0.083760321 0.021499611 0.85099989
0.093553834 0.022232091 0.85100001
0.12493902 -0.1013225 0.86900002
0.10587417 -0.091695748 0.8688463
0.11526978 -0.091845341 0.86822242
0.12472005 -0.094782248 0.86827254
0.13103361 -0.090656973 0.86900002
0.099798858 -0.081515096 0.86900002
0.10528542 -0.0848739 0.86592513
0.11490026 -0.084827952 0.86330783
0.12469663 -0.084646568 0.86286849
0.13434696 -0.084245622 0.8671906
0.14314169 -0.081849106 0.86850005
0.099798858 -0.078467801 0.86900002
0.1055849 -0.0751931 0.86408693
0.11511201 -0.075107902 0.86104542
0.12521258 -0.074765861 0.86015016
0.13438137 -0.074654959 0.86234987
0.14340399 -0.074635021 0.86614293
0.10724689 -0.066498369 0.86395013
0.11526953 -0.064693674 0.86143601
0.12515292 -0.06483826 0.86000025
0.13447058 -0.064968348 0.86172217
0.14348008 -0.065347046 0.86556017
0.11712851 -0.058691368 0.86200005
0.1244178 -0.058061637 0.86013323
0.13538195 -0.056866713 0.8617242
0.14290749 -0.056136787 0.86295015
0.049119633 -0.021914914 0.86200005
0.050944354 -0.022725703 0.86000007
0.049005661 -0.015078667 0.86000007
0.054779701 -0.0055468599 0.86113054
0.01500745 0.0084674135 0.86876488
0.020569229 0.0099037029 0.86900002
0.058325507 0.0025702112 0.86180001
0.065610319 0.006966773 0.86133325
0.07343924 0.0089291418 0.86066675
0.0168109 0.014068338 0.8690002
0.024924397 0.015551584 0.86351621
0.034926906 0.015748952 0.86070991
0.066137128 0.014492003 0.86120003
0.074265152 0.014185193 0.86110353
0.029471779 0.02040354 0.86200005
0.033972237 0.020384604 0.86120003
0.062576465 0.020356201 0.86000001
0.099293016 -0.10083245 0.87800002
0.1056418 -0.10242869 0.87595248
0.11463198 -0.10374068 0.87402755
0.12132103 -0.10240804 0.87175012
0.13209875 -0.10002854 0.87100005
0.097038895 -0.094356902 0.87505007
0.10402314 -0.09601377 0.87182754
0.11507807 -0.096620731 0.87125021
0.12537929 -0.096668817 0.87100011
0.13376443 -0.093420513 0.87188905
0.14005539 -0.091074273 0.87300003
0.096565485 -0.085646249 0.87395662
0.10002854 -0.086284161 0.87100011
0.13750692 -0.0875469 0.87140018
0.1423091 -0.085312605 0.87275004
0.098501392 -0.077884823 0.87100005
0.14737029 -0.06184971 0.87100005
0.012789909 0.01278991 0.87100017
0.10670436 -0.11057046 0.88200003
0.11205247 -0.11089439 0.88150007
0.089558803 -0.10202033 0.88833338
0.095010966 -0.10408081 0.88490313
0.10469667 -0.10671597 0.88061547
0.11186266 -0.1087768 0.88000005
0.089343727 -0.095559649 0.88620007
0.092761517 -0.095276445 0.88179165
0.092451513 -0.088036872 0.88200009
0.14619468 -0.087086312 0.88700008
0.087580271 -0.10337701 0.89272726
0.09096995 -0.10765291 0.89200002
0.087371558 -0.097954243 0.893875
0.14784257 -0.092978254 0.89771444
0.15252188 -0.094209179 0.89550018
0.14793457 -0.088237084 0.89600009
0.15290684 -0.087160893 0.89446157
-0.011806628 -0.024257207 0.89781821
-0.0058077071 -0.023718592 0.89752388
-0.010530871 -0.017760916 0.89639997
-0.0047130021 -0.014925333 0.89604759
0.0012345972 -0.01357556 0.89571434
-0.0036540225 -0.0057022204 0.8957392
0.00078374002 -0.0054861801 0.89400005
0.079618514 -0.10241045 0.90279996
0.08319398 -0.10288338 0.90115386
0.1447995 -0.10159752 0.90484613
0.07880532 -0.099501669 0.90800005
0.082106359 -0.097984731 0.90544444
0.14548749 -0.096994653 0.90194446
-0.018308306 -0.040994685 0.90800005
-0.021445019 -0.038918741 0.90600002
-0.014632689 -0.035180148 0.9050557
-0.0087291449 -0.034127582 0.9052
-0.012638027 -0.028040621 0.90100002
-0.0086886436 -0.029225437 0.90100002
0.089330576 -0.08772102 0.91800004
0.095229834 -0.085986689 0.91668761
0.10113402 -0.085038424 0.91800004
-0.020009916 -0.04562261 0.91300005
-0.014749585 -0.044310782 0.91206896
-0.010370967 -0.039090566 0.91000003
-0.0087754335 -0.039090566 0.91000003
0.08819814 -0.083726272 0.92725003
0.094234519 -0.082269698 0.92480958
0.10262545 -0.081208482 0.92175007
0.09843915 -0.078914024 0.92800003
0.1046127 -0.077816963 0.92625016
0.088052399 -0.080714703 0.93000007
0.090498298 -0.080714703 0.93000007
0.088867702 -0.077453502 0.93000007
0.095036753 -0.075518548 0.93216133
0.10419699 -0.073571503 0.93162513
0.1100655 -0.072561696 0.93000007
0.10493104 -0.067810945 0.93552631
0.1100655 -0.069300503 0.93000007
0.01579052 -0.103885 0.94800007
0.0047094538 -0.09197285 0.94800001
0.01163512 -0.092249878 0.94800007
0.00166216 -0.088925563 0.94800007
0.098063923 -0.070045665 0.94000006
0.098375849 -0.067621678 0.94300002
0.10238513 -0.064818427 0.94187498
0.075351253 -0.13107324 0.95720005
0.083765939 -0.13151184 0.95550001
0.069780037 -0.12778994 0.95900005
0.075679272 -0.12524326 0.95778358
0.085354999 -0.12552625 0.95455551
0.092523403 -0.12485092 0.95366675
0.026238769 -0.11275579 0.95600009
0.035383597 -0.11453204 0.95670354
0.04285112 -0.11258645 0.95839995
0.07878077 -0.11900926 0.95600003
0.084488995 -0.11835762 0.95557159
0.0080679627 -0.10209922 0.95200008
0.015792139 -0.10418845 0.95192331
0.025099672 -0.10540692 0.95425004
0.035199922 -0.10559976 0.95599991
0.041502386 -0.10606121 0.95637494
-0.00083371002 -0.091708094 0.95100003
0.0052040447 -0.095495567 0.95120704
0.015225174 -0.095305726 0.95217657
0.025156077 -0.095586501 0.9564721
0.034542795 -0.096446678 0.95607132
0.041066572 -0.098895013 0.95600003
0.0063641947 -0.087756902 0.95338482
0.01503617 -0.087440498 0.95514297
0.025756249 -0.088751175 0.95808321
0.031780921 -0.08948838 0.95400006
0.049016185 -0.12085025 0.96400005
0.056013104 -0.12257937 0.96672732
0.065555312 -0.12344856 0.96474105
0.071685031 -0.12059952 0.96200007
0.037950899 -0.11891282 0.96200007
0.046160378 -0.11688504 0.96284205
0.054957312 -0.11667982 0.96445006
0.061692782 -0.11746982 0.96400005
0.023107881 -0.087540075 0.96200007
0.062076766 -0.12670463 0.97000003
