# .PCD v0.7 - Point Cloud Data file format
VERSION 0.7
FIELDS x y z
SIZE 4 4 4
TYPE F F F
COUNT 1 1 1
WIDTH 265
HEIGHT 1
VIEWPOINT 0 0 0 1 0 0 0
POINTS 265
DATA ascii
0.12638631 -0.022733832 0.81813055
0.13359027 -0.021613825 0.81877792
0.11654484 -0.013974838 0.8180303
0.12530327 -0.015038968 0.81675524
0.13412574 -0.015062312 0.81814289
0.11543272 -0.0071683764 0.81785733
0.12552685 -0.0052925101 0.81739151
0.13444096 -0.0052622883 0.81861126
0.1094755 -0.041325189 0.82700002
0.11119377 -0.041425131 0.82900006
0.12337593 -0.041125309 0.82300001
0.098007269 -0.034121729 0.828125
0.10506499 -0.035077509 0.82477808
0.11480761 -0.035322424 0.82429212
0.12475787 -0.035195541 0.8235963
0.1342665 -0.033229206 0.82630438
0.14331001 -0.031967871 0.82875001
0.089391068 -0.021075943 0.82900006
0.095664673 -0.024851555 0.82719523
0.1045477 -0.025238678 0.82246929
0.11454685 -0.025217613 0.82177532
0.12350797 -0.026726471 0.82099974
0.13549057 -0.02636371 0.82255542
0.14493851 -0.025367936 0.82661909
0.15338458 -0.024344536 0.82892889
0.16061322 -0.021075943 0.82900006
0.088664308 -0.015261889 0.82900017
0.094859689 -0.015208361 0.82606149
0.10443809 -0.01512588 0.821612
0.1125616 -0.016679266 0.82099992
0.13891046 -0.015114611 0.82100004
0.14474992 -0.015043675 0.8219583
0.15464702 -0.015174748 0.82585013
0.089391068 -0.0072675664 0.82900006
0.094993375 -0.0050731981 0.82720411
0.10451492 -0.0050442154 0.82222444
0.113815 -0.0029657639 0.82147986
0.12211645 -0.0014394866 0.82100004
0.13819072 -0.0035987163 0.82100004
0.1449163 -0.0050445702 0.82238787
0.15473667 -0.0052420287 0.82575017
0.16061322 -0.0036337832 0.82900006
0.097506732 0.0017440406 0.82880002
0.10565614 0.0031281584 0.82686216
0.11527392 0.0048905876 0.82589364
0.12488458 0.005061104 0.82344919
0.13474539 0.004902523 0.82304233
0.1445345 0.0043351655 0.82705736
0.15192226 0.0025429176 0.82850009
0.12863593 0.01090135 0.82900006
0.13434243 0.011498214 0.82833344
0.14026403 0.01090135 0.82900006
0.10831492 0.025936561 0.82842863
0.11510219 0.025868637 0.82847631
0.12136836 0.026889997 0.82900006
0.1153587 0.031611469 0.82757145
0.12718242 0.032704052 0.82900006
0.11553443 -0.041591693 0.83233339
0.078210644 -0.0326082 0.83900005
0.084741585 -0.032921616 0.83768594
0.093173914 -0.034801878 0.83323997
0.13768838 -0.035211317 0.83100003
0.14601423 -0.03278295 0.83099997
0.15080157 -0.031325929 0.83100003
0.079340965 -0.021304753 0.83800006
0.085337333 -0.025013328 0.83468187
0.091974385 -0.028229766 0.83099997
0.15429841 -0.025789255 0.83100003
0.079200238 -0.015134599 0.83806664
0.083976075 -0.015337535 0.83299989
0.15517263 -0.019669769 0.83100003
0.079166427 -0.0059446767 0.83827281
0.084769458 -0.0047480254 0.8336668
0.15954369 -0.0014570199 0.83100003
0.16100071 -0.00072850997 0.83100003
0.086714365 0.0034590762 0.83628577
0.094454087 0.005996224 0.83329993
0.10398608 0.0079560112 0.83240014
0.11116396 0.0091120731 0.83150005
0.14643051 0.0088230651 0.83099997
0.15578355 0.0057247742 0.83274198
0.16156958 0.0044618351 0.83463645
0.09702073 0.014111286 0.8387143
0.1046736 0.015369272 0.83500004
0.11452704 0.015317063 0.83210218
0.12480315 0.015431748 0.83312517
0.13493256 0.01643637 0.83351421
0.14488748 0.015465939 0.83424455
0.15267447 0.014460697 0.83581823
0.097222947 0.025240108 0.83700001
0.10384088 0.025011858 0.83223057
0.11656159 0.021491045 0.83100003
0.1251325 0.025327809 0.83220929
0.13344967 0.024574595 0.83747619
0.14269152 0.021330176 0.83900005
0.097657032 0.031153848 0.83757144
0.10324521 0.03266127 0.83526671
0.11874713 0.03351146 0.83100003
0.1234291 0.032497041 0.83113348
0.13453043 -0.060473561 0.84900004
0.14513656 -0.060287483 0.84900004
0.13536353 -0.055730533 0.84894156
0.14497301 -0.055017602 0.84804773
0.1524864 -0.054426208 0.84900004
0.13756905 -0.045362286 0.84823817
0.14479466 -0.045294736 0.84700006
0.15419447 -0.04526427 0.84791929
0.16002235 -0.043913111 0.84900004
0.076895759 -0.030552009 0.84180003
0.13690436 -0.038798641 0.84566671
0.14504829 -0.037463587 0.84508705
0.15373863 -0.036708754 0.84795243
0.075438865 -0.024303107 0.844706
0.080363154 -0.027279237 0.84100002
0.069218971 -0.01414151 0.8490001
0.074073292 -0.015184034 0.84435141
0.069218971 -0.0081871897 0.84900004
0.074050069 -0.0051845228 0.84476191
0.07613156 0.0046002204 0.84551436
0.083197393 0.0067116534 0.84283996
0.079080306 0.011651777 0.84833336
0.08574339 0.013239086 0.84600008
0.094022572 0.016022764 0.84341669
0.15335354 0.018431917 0.84100002
0.094041459 0.02352225 0.84469229
0.137731 0.025661584 0.84361541
0.14348309 0.025162825 0.84399992
0.09658324 0.03317745 0.84100002
0.13843793 0.030515891 0.84900004
0.1418245 0.030444004 0.84700006
0.12805887 -0.072292343 0.85675001
0.13527094 -0.07445807 0.85677439
0.14434649 -0.073837683 0.85692877
0.15413553 -0.074199311 0.85727274
0.16096652 -0.071457103 0.85800004
0.12748449 -0.065246098 0.85542864
0.134855 -0.065724522 0.85267568
0.14475165 -0.065893278 0.85336602
0.15532778 -0.065308921 0.85539144
0.16194418 -0.065260462 0.85759991
0.12717806 -0.054719936 0.85424149
0.13218828 -0.051978003 0.85189998
0.15755524 -0.055606183 0.85328573
0.1642292 -0.054419968 0.85716134
0.1282928 -0.046760697 0.85480005
0.13338327 -0.045457266 0.85344005
0.15816119 -0.045135621 0.85100001
0.16468242 -0.044784386 0.85442436
0.17124633 -0.045882978 0.85799992
0.15851849 -0.034489892 0.85224992
0.16468476 -0.035470407 0.85535908
0.17074485 -0.038361177 0.85800004
0.067783356 -0.022487881 0.85099989
0.070874117 -0.023873387 0.85100001
0.16506885 -0.028502028 0.85763627
0.066062056 -0.014958818 0.85312504
0.066959418 -0.0055938647 0.85503334
0.06779746 0.0054367357 0.85664004
0.072236709 0.0067246594 0.85199994
0.069289394 0.011756685 0.85600013
0.075289853 0.013825698 0.85508001
0.083787411 0.017482124 0.85382354
0.090874679 0.018175637 0.852
0.086673275 0.022695983 0.85619056
0.091530927 0.022763448 0.85263634
0.14517337 -0.090448327 0.86700004
0.12595795 -0.083510354 0.86596167
0.13521199 -0.08463712 0.86505413
0.14432515 -0.08465191 0.864353
0.15148799 -0.081803516 0.86400002
0.1180804 -0.074293353 0.8652668
0.12386568 -0.075418182 0.86155003
0.13317892 -0.078366213 0.86044449
0.14554366 -0.078427479 0.86020005
0.15385561 -0.076236978 0.861
0.16096126 -0.073301606 0.86200005
0.1172929 -0.066858426 0.8621819
0.12232507 -0.064938493 0.86133343
0.16523571 -0.062736891 0.86220008
0.12267723 -0.057136927 0.86133355
0.16866189 -0.055421114 0.86119998
0.17165063 -0.053693399 0.86255562
0.169635 -0.048251733 0.86000001
0.169635 -0.033173069 0.86000001
0.171159 -0.032778919 0.86160004
0.16659342 -0.025163986 0.86116672
0.17002951 -0.025945241 0.86200005
0.06371589 -0.0020481439 0.86085719
0.064838268 0.0022618 0.86000007
0.07696081 0.018360322 0.86066669
0.077379107 0.022447675 0.86171436
0.082683407 0.02391167 0.86133343
0.11930557 -0.090056457 0.87800002
0.12495013 -0.091082744 0.87800002
0.13522692 -0.091369934 0.87400007
0.14245938 -0.092478335 0.87180012
0.11756543 -0.083938748 0.87380964
0.12377293 -0.088001877 0.87287509
0.13321681 -0.089406848 0.87166673
0.11613272 -0.076658167 0.87344456
0.16856723 -0.068504483 0.87800002
0.17350137 -0.061251238 0.87700003
0.17372991 -0.058930408 0.87300003
0.11659666 -0.090652242 0.88080007
0.12613475 -0.094216511 0.88268757
0.1320862 -0.095010608 0.88111115
0.10964207 -0.085536368 0.88700002
0.11342343 -0.084666498 0.88330436
0.16756169 -0.080273733 0.88900012
0.17107274 -0.080093145 0.88700002
0.11417356 -0.078963704 0.88599998
0.16903263 -0.075510725 0.88610011
0.17513819 -0.074298374 0.88645446
0.1818461 -0.072542287 0.88700002
0.17554209 -0.065849878 0.88292855
0.18360972 -0.064934127 0.88478583
0.17819916 -0.058365833 0.88300008
0.18364616 -0.058852486 0.88722229
0.017925203 -0.016366489 0.88900006
0.11118343 -0.082639508 0.8944
0.17653087 -0.080454327 0.89100003
0.10942729 -0.079511911 0.89800006
0.11189634 -0.077902004 0.89760005
0.17839421 -0.079024926 0.89250004
0.18308701 -0.055550415 0.8925001
0.0063963784 -0.023814213 0.89799994
0.012616802 -0.023873383 0.89663154
0.0076865545 -0.015220978 0.89473337
0.014218675 -0.014445571 0.89411938
0.0086211404 -0.0078373998 0.89400005
0.015568876 -0.005982494 0.89558619
0.11295236 -0.075038284 0.90100002
0.0050414181 -0.040862016 0.90800005
0.0051195207 -0.034744058 0.90496975
0.0117914 -0.033894382 0.90466672
0.0047392603 -0.02804062 0.90100002
0.01318346 -0.028736694 0.90216666
0.0051713404 -0.045038745 0.9119333
0.068834111 -0.11030044 0.94600004
0.072177432 -0.11116923 0.94633341
0.03816963 -0.10123176 0.94650006
0.044846762 -0.10215213 0.94733334
0.05500593 -0.10405257 0.94621843
0.06468185 -0.10448632 0.9459163
0.074228197 -0.10420788 0.94668722
0.08052972 -0.10128568 0.94700003
0.035623845 -0.094315678 0.94649982
0.044802684 -0.094581775 0.94638854
0.054783724 -0.094624206 0.94683331
0.064707465 -0.094572119 0.94630527
0.074290685 -0.095745571 0.9466666
0.080444686 -0.097031221 0.94600004
0.035654489 -0.086011589 0.94773912
0.043461014 -0.086090498 0.9479
0.05599843 -0.087018155 0.94773334
0.062515683 -0.087632768 0.94800007
0.077779621 -0.11123321 0.95400006
0.082133144 -0.11146642 0.95600003
0.046765674 -0.10689866 0.95262504
0.050856311 -0.10754859 0.95100003
0.078910522 -0.1081364 0.95250005
0.082567178 -0.10717999 0.95309103
0.03584953 -0.084204704 0.95100003
0.047198333 -0.083555095 0.95120019
0.052826896 -0.085114211 0.95100015
