# .PCD v0.7 - Point Cloud Data file format
VERSION 0.7
FIELDS x y z
SIZE 4 4 4
TYPE F F F
COUNT 1 1 1
WIDTH 234
HEIGHT 1
VIEWPOINT 0 0 0 1 0 0 0
POINTS 234
DATA ascii
-0.069497749 -0.1213894 1.057
-0.15621236 -0.16556638 1.067
-0.079509281 -0.13002107 1.067
-0.14779373 -0.12066703 1.067
-0.10008816 -0.12721485 1.067
-0.094201483 -0.12440703 1.0656666
-0.085084997 -0.12432566 1.0634781
-0.075325444 -0.12461127 1.06075
-0.065482832 -0.12408634 1.0610501
-0.055676803 -0.12254339 1.0643334
-0.12191423 -0.11630181 1.067
-0.093980774 -0.1154649 1.0656
-0.084478006 -0.11487166 1.0614814
-0.075298674 -0.11527081 1.0603999
-0.065547124 -0.1156473 1.0631211
-0.10008816 -0.10570057 1.067
-0.093742684 -0.10451588 1.0644544
-0.084815934 -0.10532072 1.0631598
-0.075170234 -0.10442953 1.0645483
-0.065873556 -0.10491787 1.0656205
-0.092159033 -0.096177697 1.0651538
-0.084746584 -0.094992533 1.0622998
-0.075107671 -0.094923757 1.0652856
-0.065790035 -0.096970156 1.067
-0.084482484 -0.086741783 1.0622858
-0.074593633 -0.08655481 1.0676999
-0.1510672 -0.18128064 1.077
-0.14755528 -0.18574244 1.0755
-0.15265559 -0.1742329 1.0733845
-0.1472986 -0.1720093 1.0747778
-0.15422177 -0.16490091 1.0720909
-0.14615962 -0.16468886 1.0745
-0.1233086 -0.16220841 1.077
-0.11833597 -0.16397084 1.077
-0.15409479 -0.15402326 1.076846
-0.14571691 -0.1538997 1.0769999
-0.13388331 -0.1505007 1.077
-0.12523438 -0.15554686 1.0767777
-0.11990959 -0.15484388 1.077
-0.1620104 -0.14409135 1.0760001
-0.15557669 -0.14434896 1.0745384
-0.14504622 -0.1442607 1.0741613
-0.13473605 -0.14416178 1.07476
-0.12508003 -0.14539476 1.07276
-0.11749525 -0.14388077 1.0748461
-0.16168958 -0.13451485 1.0730001
-0.15510696 -0.13442627 1.0722799
-0.14480199 -0.13446316 1.0725666
-0.13444027 -0.13444088 1.0724
-0.12476264 -0.13505645 1.0711379
-0.11837824 -0.13455555 1.0734
-0.08411032 -0.13038664 1.0700001
-0.16105331 -0.12714501 1.0743333
-0.15481842 -0.12556104 1.0732272
-0.14447467 -0.12527631 1.0721428
-0.13445635 -0.12505268 1.07252
-0.12481461 -0.12481609 1.0704799
-0.11664973 -0.12496766 1.0746469
-0.1044142 -0.1244421 1.0729499
-0.098493502 -0.1210063 1.0700001
-0.055402875 -0.12114201 1.0712
-0.047509946 -0.12234572 1.0747143
-0.15222895 -0.11798004 1.0732
-0.14352629 -0.11649673 1.0742999
-0.13466245 -0.11488002 1.0741667
-0.12605682 -0.11582467 1.0712777
-0.11400664 -0.11891071 1.0748
-0.10424674 -0.11481338 1.0725862
-0.096351638 -0.11325201 1.0712
-0.060972165 -0.112564 1.0700001
-0.055132765 -0.11485431 1.0727813
-0.046469402 -0.11535404 1.0763332
-0.13501631 -0.10857955 1.077
-0.11099862 -0.10386115 1.0712001
-0.10484986 -0.10441303 1.0715383
-0.097601496 -0.10667002 1.0705
-0.060972165 -0.10487213 1.0700001
-0.055415921 -0.10426161 1.0714399
-0.04593043 -0.1041161 1.0745999
-0.037092391 -0.10237499 1.077
-0.10334355 -0.096824251 1.073923
-0.096408114 -0.094234519 1.0724615
-0.072228558 -0.090989232 1.0700001
-0.064064503 -0.093398415 1.07075
-0.054914515 -0.094846137 1.0734999
-0.04679364 -0.097885773 1.0747778
-0.037294716 -0.098665759 1.077
-0.028325099 -0.09913785 1.077
-0.093329065 -0.08705169 1.0735
-0.088652618 -0.084266372 1.072
-0.064678803 -0.086694144 1.071
-0.055496171 -0.086190112 1.0747617
-0.13626994 -0.19154029 1.087
-0.14328103 -0.18396787 1.0837272
-0.13674641 -0.18534617 1.087
-0.1248347 -0.18010503 1.087
-0.15148801 -0.1789452 1.08
-0.14408933 -0.17621896 1.0813333
-0.13494059 -0.17425041 1.0853102
-0.12484522 -0.17456001 1.0848181
-0.11652803 -0.17336659 1.0857142
-0.156222 -0.16000921 1.08
-0.14197284 -0.16428304 1.0804446
-0.1354876 -0.16435109 1.0813333
-0.12570162 -0.16602415 1.08
-0.11689298 -0.16492079 1.0802858
-0.15584329 -0.15773687 1.08
-0.14262402 -0.15636753 1.081
-0.13577883 -0.15529624 1.0807999
-0.12481981 -0.15574859 1.08
-0.11703801 -0.15464987 1.0841428
-0.1164564 -0.14864761 1.08
-0.1604826 -0.1226106 1.08
-0.1574844 -0.1208748 1.08
-0.1126692 -0.1211904 1.08
-0.042257436 -0.12336383 1.0808001
-0.035533126 -0.12247068 1.0857501
-0.16000921 -0.11835 1.08
-0.15716881 -0.11835 1.08
-0.1410732 -0.1107756 1.08
-0.041659199 -0.11456279 1.08
-0.035210833 -0.11516135 1.0856398
-0.029541036 -0.11244652 1.087
-0.14210504 -0.10748021 1.085
-0.13615732 -0.10678209 1.0830666
-0.041848559 -0.10736712 1.08
-0.034305234 -0.10640648 1.0836666
-0.025986008 -0.10438436 1.0846111
-0.016835215 -0.10641126 1.087
-0.10365123 -0.092236437 1.0846667
-0.099413998 -0.091839597 1.08
-0.043929163 -0.093986437 1.0829544
-0.034785528 -0.094339997 1.0836922
-0.025346309 -0.094391204 1.0852855
-0.01995644 -0.094080359 1.0840001
-0.10187481 -0.088605575 1.0810001
-0.098802432 -0.087801322 1.0816
-0.050496001 -0.086474396 1.08
-0.044955339 -0.085710742 1.0846189
-0.038117465 -0.088623106 1.087
-0.13367677 -0.19137897 1.097
-0.12213632 -0.19137897 1.097
-0.13401584 -0.18467367 1.0930716
-0.12455447 -0.18606393 1.0947392
-0.11582201 -0.18426479 1.0950588
-0.11604825 -0.17784156 1.09
-0.031533699 -0.12422366 1.09
-0.02711647 -0.12282977 1.0917778
-0.025765857 -0.11551989 1.0924287
-0.14264068 -0.10530344 1.092
-0.023464471 -0.10861608 1.09
-0.018155767 -0.10797903 1.09
-0.041089367 -0.082178734 1.09
-0.035362143 -0.085059963 1.0901905
-0.026626619 -0.086842358 1.0902858
-0.13126856 -0.19014637 1.1010001
-0.13223377 -0.18628553 1.1010001
-0.02316504 -0.1158252 1.1010001
-0.026289189 -0.24615836 1.1683334
-0.073260404 -0.26105466 1.177
-0.06472189 -0.26171765 1.1765001
-0.058714747 -0.26164293 1.1750001
-0.073673144 -0.25630823 1.177
-0.065657951 -0.25678065 1.1763334
-0.054687344 -0.25795919 1.177
-0.029923264 -0.2507363 1.177
-0.073260404 -0.24867263 1.177
-0.025108024 -0.24592108 1.177
-0.072474033 -0.26401255 1.1810001
-0.066261977 -0.26401255 1.1810001
-0.056943882 -0.26194185 1.1810001
-0.045709401 -0.26075134 1.1850001
-0.07454472 -0.25314146 1.1810001
-0.064951524 -0.25462705 1.1813809
-0.055145107 -0.25508603 1.1814799
-0.044843689 -0.25434503 1.1849998
-0.035901859 -0.25337288 1.1856155
-0.07495378 -0.24935994 1.1842
-0.065276168 -0.24810965 1.1850003
-0.054405894 -0.24686451 1.1840589
-0.044528622 -0.24576558 1.1871052
-0.035057608 -0.24693173 1.1876667
-0.024992889 -0.2457884 1.188
-0.017720064 -0.24356401 1.189
-0.041253302 -0.23954946 1.1863333
-0.032610871 -0.23423244 1.189
-0.0031270699 -0.23036082 1.189
-0.030228343 -0.2282761 1.189
-0.0027066206 -0.22698426 1.1866
0.0010388499 -0.22543044 1.1850001
0.016677707 -0.19075127 1.189
0.018193902 -0.18584698 1.1860001
-0.072287306 -0.24880807 1.1950001
-0.033766445 -0.24428378 1.193
-0.025536597 -0.24343053 1.1938
-0.016765811 -0.24157514 1.1955
-0.033467624 -0.23699264 1.193
-0.025100717 -0.23531923 1.1930002
-0.016948903 -0.23504427 1.1953533
-0.0073395786 -0.23348829 1.1958572
-0.030330036 -0.22695234 1.1930001
-0.02476554 -0.22521633 1.1936668
-0.016493481 -0.22490597 1.1937621
-0.0064461296 -0.22486499 1.1970003
-0.021963131 -0.21858543 1.1930001
-0.015239653 -0.21526884 1.195182
-0.006461909 -0.21512087 1.1970003
-0.0050719543 -0.20480208 1.1970004
0.0051302528 -0.20521015 1.1970003
-0.0026817233 -0.19599898 1.197
0.0052459734 -0.19515003 1.1968002
0.013424236 -0.19511323 1.1948183
-0.0020987401 -0.18993597 1.197
0.0061110365 -0.18672612 1.1970003
0.014159918 -0.18487342 1.1965002
0.0087447502 -0.17664395 1.197
0.014210048 -0.17690933 1.1966366
0.0094443299 -0.16894858 1.197
-0.066386461 -0.24763203 1.202
-0.011591286 -0.23498698 1.202
-0.0094837798 -0.23498698 1.202
-0.011591286 -0.22585447 1.202
-0.0031618446 -0.22387028 1.2026668
0.0021145199 -0.22096734 1.2060001
-0.0014752547 -0.21517643 1.202
0.003341561 -0.21467723 1.2033333
-0.012659066 -0.20781733 1.2033335
0.0055698389 -0.20397653 1.202
0.012434289 -0.20295289 1.202
-0.0019574712 -0.18599884 1.2025715
0.0033531704 -0.18331179 1.2023636
0.011591286 -0.17492306 1.202
-0.071071364 -0.24928017 1.21
0.0021215333 -0.22488254 1.21
