# .PCD v0.7 - Point Cloud Data file format
VERSION 0.7
FIELDS x y z
SIZE 4 4 4
TYPE F F F
COUNT 1 1 1
WIDTH 252
HEIGHT 1
VIEWPOINT 0 0 0 1 0 0 0
POINTS 252
DATA ascii
-0.15004939 -0.01525926 0.96700007
-0.14691928 -0.015715735 0.96700007
-0.18376511 -0.051538065 0.9780001
-0.17398252 -0.052470434 0.97610551
-0.16571929 -0.052390479 0.97540009
-0.15714777 -0.050481975 0.97600001
-0.18328981 -0.046080235 0.97626334
-0.17485119 -0.044532381 0.97383869
-0.16554166 -0.044284012 0.97408557
-0.15564436 -0.044082675 0.97641683
-0.14575461 -0.043726377 0.97800004
-0.17433675 -0.036806677 0.97640014
-0.16530767 -0.034626853 0.97493112
-0.15564425 -0.034902979 0.97567767
-0.14611025 -0.033809058 0.97730792
-0.13803817 -0.030579885 0.97799999
-0.18311188 -0.022169396 0.9780001
-0.17505682 -0.023855336 0.97799999
-0.16528407 -0.026177043 0.97585022
-0.15513985 -0.025643872 0.97402865
-0.14559284 -0.025101397 0.97638726
-0.13666637 -0.02566424 0.97799993
-0.18287028 -0.018960422 0.97671431
-0.17613034 -0.017882496 0.97799999
-0.15456323 -0.015613083 0.97448003
-0.14356495 -0.015107369 0.97404337
-0.13921706 -0.017563798 0.9772501
-0.14419928 -0.0087845288 0.97762507
-0.13975294 -0.0094311796 0.97800004
-0.12453444 -0.0040725553 0.9780001
-0.11717527 -0.0014289668 0.9780001
-0.11403155 0.0019291049 0.9780001
-0.10802988 0.00257214 0.97800004
-0.18084143 -0.061434168 0.98700005
-0.17418095 -0.061527535 0.98850006
-0.18407802 -0.0563609 0.98364717
-0.1757028 -0.057749163 0.98314297
-0.1688197 -0.058571413 0.98250002
-0.18534574 -0.0410145 0.98699999
-0.15136176 -0.047300547 0.98100001
-0.14434068 -0.04371636 0.98142868
-0.13485938 -0.041693389 0.98400015
-0.12767072 -0.040544081 0.98400003
-0.19308436 -0.030304903 0.98766667
-0.18468764 -0.034155838 0.98726916
-0.17566049 -0.032411192 0.98364717
-0.14261834 -0.036693763 0.98100001
-0.13444327 -0.034505691 0.98217881
-0.12592548 -0.03291383 0.98347068
-0.11542631 -0.030223081 0.98500007
-0.19107607 -0.02717579 0.98400003
-0.18527345 -0.0262655 0.98135298
-0.17524391 -0.026101433 0.98150009
-0.16504829 -0.021857405 0.98160011
-0.13467759 -0.024137616 0.98100001
-0.12481684 -0.025151238 0.98362494
-0.11560165 -0.024931764 0.98534465
-0.1075819 -0.023939135 0.98700023
-0.18245953 -0.015921362 0.98175001
-0.17337142 -0.014902995 0.98238468
-0.16564611 -0.015410359 0.98196799
-0.15852851 -0.013473489 0.98100013
-0.14018163 -0.01290015 0.98100013
-0.13481054 -0.015934955 0.98148024
-0.12539428 -0.015519018 0.98329997
-0.11558052 -0.015385223 0.98663139
-0.10794232 -0.016564287 0.98800015
-0.17166536 -0.0094890399 0.98400003
-0.16456136 -0.0064404942 0.98228562
-0.15450223 -0.0053754481 0.98306918
-0.14456876 -0.0038386881 0.98157722
-0.13558283 -0.0050836699 0.981682
-0.12582606 -0.005490833 0.9810003
-0.11440808 -0.0063899173 0.98423994
-0.10718384 -0.0039229286 0.98741198
-0.15315278 0.00086526998 0.98700005
-0.14450684 0.0039283065 0.98191321
-0.1347661 0.0035746282 0.986826
-0.12483897 0.0049873875 0.98724127
-0.11610974 0.0052985735 0.98314297
-0.10488081 0.0044083814 0.98647624
-0.098253205 0.00559401 0.98863643
-0.17358439 -0.063676685 0.99500006
-0.19656095 -0.053726956 0.99650002
-0.20233972 -0.043535657 0.99533337
-0.19540462 -0.044118185 0.99452025
-0.18871477 -0.043482669 0.99200004
-0.20204945 -0.037974861 0.99200004
-0.19489838 -0.03582 0.99324161
-0.18871477 -0.034786135 0.99200004
-0.10348874 -0.020002026 0.99200004
-0.10420626 -0.014387987 0.99246144
-0.10458116 -0.0065722107 0.99336356
-0.13218731 0.0078268796 0.99200004
-0.12957835 0.0078268796 0.99200004
-0.10095672 0.0052185776 0.99275005
-0.098270826 0.0008696533 0.99200004
-0.19215685 -0.092105813 1.0070001
-0.18891992 -0.09269435 1.0070001
-0.19156832 -0.080335103 1.0070001
-0.20260336 -0.07489115 1.0070001
-0.19454198 -0.074387811 1.0070001
-0.23148559 -0.064252652 1.0040001
-0.22936551 -0.064903431 1.0050001
-0.21316305 -0.063629761 1.0070001
-0.20392223 -0.064507931 1.0060689
-0.1951021 -0.065582909 1.0060357
-0.18809532 -0.066978849 1.0064546
-0.2137325 -0.055309415 1.00675
-0.20518602 -0.054599408 1.0044999
-0.19803779 -0.056929093 1.0028751
-0.2118728 -0.048554182 1.0070001
-0.20566142 -0.0473851 1.0029999
-0.21290873 -0.11226096 1.0190001
-0.20715176 -0.11325356 1.0190001
-0.18134463 -0.11166541 1.0190001
-0.17360251 -0.11166541 1.0190001
-0.16705148 -0.11285651 1.0190001
-0.21368714 -0.10475401 1.0185266
-0.20623447 -0.10470363 1.0190005
-0.19407703 -0.10271046 1.0175
-0.1847256 -0.10371611 1.0179567
-0.17524028 -0.10563546 1.0190004
-0.16679622 -0.10707117 1.0190001
-0.22118884 -0.092335202 1.016
-0.21486302 -0.095156565 1.0151113
-0.20501886 -0.095380113 1.0168003
-0.19482894 -0.095450163 1.0130001
-0.18467607 -0.095185183 1.0118891
-0.17828231 -0.095758289 1.016
-0.22435875 -0.085279092 1.0154003
-0.21473001 -0.085105635 1.0127431
-0.20500873 -0.085417166 1.0131937
-0.19494981 -0.085090712 1.011059
-0.18486781 -0.085055806 1.0116365
-0.17878617 -0.088063098 1.0106
-0.22439732 -0.075293221 1.0123752
-0.21528938 -0.075307816 1.0106001
-0.20696492 -0.075385347 1.0103335
-0.19423188 -0.076388747 1.0100001
-0.18686832 -0.07623338 1.0102309
-0.22408143 -0.067312911 1.0103002
-0.21604574 -0.067071572 1.0100001
-0.20832981 -0.068684325 1.0100001
-0.19036816 -0.064636633 1.01
-0.18771186 -0.064636633 1.01
-0.18384752 -0.13067593 1.028
-0.20097058 -0.1216638 1.028
-0.19422506 -0.12412034 1.0268749
-0.18440656 -0.12390439 1.026105
-0.1757513 -0.12441635 1.026421
-0.16872895 -0.12193557 1.0265
-0.20261365 -0.11427262 1.0236667
-0.19503964 -0.11485848 1.0243223
-0.1848819 -0.11504558 1.0220907
-0.17490794 -0.11614569 1.0226817
-0.1656085 -0.11538731 1.0230434
-0.20248544 -0.1075144 1.0220001
-0.19642405 -0.10691988 1.0224288
-0.18576099 -0.1075144 1.0220002
-0.17487381 -0.10531525 1.0220002
-0.16216755 -0.10841035 1.0220001
-0.17291899 -0.099450819 1.0220001
-0.19071095 -0.13105728 1.031
-0.18890326 -0.13105728 1.031
-0.17986482 -0.13105728 1.031
-0.19458453 -0.12692542 1.031
-0.18664363 -0.12766786 1.031
-0.17362185 -0.12759295 1.0337001
-0.1690187 -0.12382653 1.031
-0.1724833 -0.13050322 1.041
-0.16138996 -0.10728735 1.046
-0.15665771 -0.10718565 1.0450001
-0.1610875 -0.1113805 1.0500001
-0.15863283 -0.11199417 1.0500001
-0.16103226 -0.10252821 1.0536667
-0.15787588 -0.10274082 1.0531429
-0.16369559 -0.10008816 1.067
-0.15808316 -0.10008816 1.067
-0.1626085 -0.09812355 1.066
-0.15975408 -0.09809228 1.0656667
-0.18333906 -0.085589401 1.0670002
-0.17866203 -0.088863313 1.067
-0.18464863 -0.073447883 1.0669999
-0.17803843 -0.070778854 1.067
-0.021514276 -0.071090654 1.067
-0.017585583 -0.07389687 1.0670002
-0.18575515 -0.067771949 1.0648
-0.023078652 -0.064056888 1.066077
-0.017759804 -0.065115705 1.0662001
-0.024706461 -0.054841232 1.0651816
-0.018680014 -0.055107437 1.0653999
-0.024500422 -0.048761297 1.0645001
-0.018948564 -0.048769262 1.0630001
-0.036822628 -0.11046789 1.077
-0.02594159 -0.11398054 1.0759999
-0.040914033 -0.10480288 1.077
-0.035524394 -0.10362265 1.0769999
-0.02480592 -0.10411619 1.0769999
-0.0188308 -0.10356677 1.074
-0.17334251 -0.092305034 1.0707499
-0.1642862 -0.09360934 1.0701666
-0.15852763 -0.092865296 1.0700001
-0.040599309 -0.09913785 1.077
-0.033423614 -0.095487073 1.0769999
-0.025153663 -0.095069572 1.076478
-0.017841045 -0.094829902 1.0709999
-0.18527688 -0.084404424 1.0708182
-0.17454554 -0.085345536 1.0714482
-0.16506711 -0.085953861 1.0718571
-0.15852763 -0.089113168 1.0700001
-0.031787056 -0.0837164 1.077
-0.025425823 -0.085692793 1.0741199
-0.017607849 -0.085218243 1.071125
-0.18506059 -0.078928813 1.0700001
-0.17510524 -0.076678522 1.0713599
-0.16796084 -0.079426289 1.0743333
-0.031792536 -0.075120904 1.0745001
-0.025638681 -0.075432219 1.0717143
-0.018090645 -0.077856764 1.0700001
-0.03104189 -0.063024439 1.0730001
-0.027727723 -0.065321825 1.0720834
-0.03109975 -0.056546755 1.075
-0.029106209 -0.057275265 1.0710001
-0.063710622 -0.15410347 1.087
-0.0558048 -0.15187256 1.085
-0.072831586 -0.1449825 1.087
-0.064519413 -0.14484632 1.0870003
-0.054476667 -0.14522541 1.0855598
-0.047349893 -0.14340375 1.0832857
-0.062234096 -0.13568352 1.087
-0.054123167 -0.13483086 1.0844136
-0.044772513 -0.13470885 1.0834481
-0.036989097 -0.13266499 1.0817778
-0.053150337 -0.12547019 1.0837646
-0.04465726 -0.12447235 1.0838398
-0.035103358 -0.12488609 1.0821427
-0.0293508 -0.1221372 1.08
-0.043527536 -0.11606798 1.0851874
-0.034958687 -0.11473888 1.0801667
-0.02897208 -0.11304791 1.08
-0.033979598 -0.1071988 1.08
-0.026104627 -0.10563583 1.08
-0.031244399 -0.097520396 1.08
-0.0293508 -0.098467201 1.08
-0.032822397 -0.088052399 1.08
-0.033137999 -0.071010001 1.08
-0.031875599 -0.0684852 1.08
-0.031244399 -0.059648398 1.08
-0.075065084 -0.154908 1.09
-0.068227462 -0.15461069 1.09
-0.074852727 -0.14811283 1.09
