# .PCD v0.7 - Point Cloud Data file format
VERSION 0.7
FIELDS x y z
SIZE 4 4 4
TYPE F F F
COUNT 1 1 1
WIDTH 222
HEIGHT 1
VIEWPOINT 0 0 0 1 0 0 0
POINTS 222
DATA ascii
-0.18158518 -0.024753908 0.96700013
-0.17887244 -0.022041153 0.96700007
-0.18153675 -0.017318049 0.96700007
-0.1750778 -0.016672155 0.96700025
-0.16869959 -0.017802469 0.96700007
-0.1941317 0.0059341565 0.96700007
-0.19454589 -0.03320292 0.97405893
-0.18678129 -0.033012636 0.97175002
-0.20098037 -0.024193808 0.97416669
-0.19503634 -0.025807505 0.97309357
-0.18687519 -0.025205957 0.97013628
-0.17323038 -0.022636604 0.97233337
-0.16488847 -0.023738723 0.97456545
-0.15647963 -0.022862837 0.97614294
-0.2017812 -0.017693179 0.97666675
-0.19489458 -0.01601786 0.9751935
-0.18570279 -0.014707115 0.97226083
-0.17455193 -0.013322412 0.97000021
-0.16496447 -0.015246486 0.97068548
-0.15523921 -0.01535484 0.97297215
-0.1452582 -0.015379192 0.97469449
-0.13675255 -0.014271257 0.977
-0.12725969 -0.0128607 0.9780001
-0.20428525 -0.00256425 0.97500002
-0.19438186 -0.0024357173 0.9754616
-0.18487312 -0.004899106 0.97560626
-0.17502293 -0.0053233672 0.97209352
-0.1651289 -0.0051047578 0.97091645
-0.15513743 -0.0051162252 0.97233307
-0.14523493 -0.0051261871 0.97452778
-0.13530093 -0.0051388741 0.97683358
-0.12877849 -0.0051442799 0.97800004
-0.19224086 0.0043532043 0.97278935
-0.18484019 0.0053577344 0.97409093
-0.17541747 0.0048892777 0.97348475
-0.16549534 0.0051191724 0.9730832
-0.15508707 0.0051168585 0.9719997
-0.1449468 0.0051158629 0.97258312
-0.13484845 0.0051194411 0.97355533
-0.12847558 0.0058130892 0.97570002
-0.19021825 0.011088956 0.97300005
-0.18375692 0.01245449 0.97492868
-0.17382507 0.01352059 0.9750002
-0.16498286 0.013910399 0.97637516
-0.15383986 0.01415128 0.97671443
-0.14529841 0.014417973 0.97535735
-0.13510439 0.013313852 0.97509521
-0.12550789 0.015095884 0.97604018
-0.15004151 0.021434499 0.97800004
-0.14832674 0.023149259 0.97800004
-0.20687178 -0.031733055 0.98900002
-0.2069144 -0.025506416 0.98753858
-0.21253866 -0.01379752 0.98830783
-0.20597489 -0.01459544 0.98521072
-0.19522227 -0.011610135 0.98100007
-0.13564891 -0.014397496 0.98140007
-0.12445574 -0.011917283 0.98100001
-0.11767672 -0.01124851 0.98700005
-0.21123327 -0.0086566443 0.98750007
-0.20466645 -0.0068609184 0.98385721
-0.19471639 -0.0071330233 0.98100001
-0.12486527 -0.0052010138 0.98100019
-0.11677827 -0.0051525594 0.98566657
-0.12404922 0.0048007518 0.98300016
-0.11676234 0.0055023348 0.98714292
-0.16236643 0.017577415 0.98142862
-0.15633054 0.018222077 0.9812727
-0.143335 0.019206891 0.98100001
-0.13468735 0.018525062 0.98275012
-0.12374588 0.016340191 0.98100007
-0.11544707 0.011833538 0.98766667
-0.15222178 0.022073589 0.98100013
-0.14401902 0.023118796 0.98275
-0.13461773 0.023299756 0.98433334
-0.12586701 0.022820748 0.98400015
-0.21750346 -0.052319817 0.99800003
-0.22206554 -0.044413682 0.99690914
-0.21528919 -0.044818476 0.99606466
-0.20573275 -0.043463491 0.99650002
-0.2231524 -0.034686062 0.99665004
-0.21514033 -0.035008524 0.99432296
-0.2065639 -0.036152076 0.99233329
-0.23156039 -0.024789212 0.99800009
-0.22441526 -0.027122313 0.99800003
-0.21495017 -0.024605753 0.99524009
-0.20958646 -0.023480641 0.99200004
-0.21480437 -0.017393067 0.99200004
-0.11392459 -0.0008696533 0.99200004
-0.11392459 0.0034786134 0.99200004
-0.22276072 -0.072095603 1.0070001
-0.21540399 -0.071507066 1.0070001
-0.20569316 -0.07216917 1.0070001
-0.24895054 -0.060913429 1.0070001
-0.231883 -0.062090505 1.0070001
-0.22478387 -0.064971782 1.0063571
-0.21484976 -0.065164313 1.0044167
-0.20540302 -0.065149441 1.0064193
-0.19509953 -0.060913429 1.0070001
-0.24418339 -0.052968204 1.0070001
-0.23520808 -0.054923479 1.0068065
-0.2253467 -0.054698542 1.0037096
-0.21410765 -0.055318102 1.0015768
-0.20555651 -0.054600473 1.0035588
-0.19882216 -0.056976616 1.0050001
-0.24351431 -0.044837113 1.0070001
-0.23520522 -0.044927239 1.0048399
-0.22748636 -0.045285325 1.0024
-0.21236548 -0.048264883 1.001
-0.20631024 -0.047784094 1.0014286
-0.24287617 -0.036062557 1.0058947
-0.23489067 -0.035189141 1.0034999
-0.2284741 -0.035648771 1.0016
-0.24116749 -0.02772546 1.0040001
-0.23534122 -0.025944952 1.0022631
-0.22528823 -0.025855146 1.0016667
-0.21850829 -0.024571214 1.001
-0.22056451 -0.10049975 1.0145
-0.2162237 -0.10054928 1.015
-0.20694199 -0.10079694 1.0175
-0.19385116 -0.10630547 1.0190001
-0.22095637 -0.095333919 1.0163
-0.21468182 -0.095315628 1.0161202
-0.2062545 -0.094835512 1.0181252
-0.1944467 -0.091714531 1.0190001
-0.18780094 -0.092564426 1.0172001
-0.23000841 -0.080813766 1.013
-0.22324678 -0.084726863 1.0128968
-0.2144579 -0.085217811 1.0142583
-0.20508304 -0.085254245 1.0160885
-0.19527657 -0.084800877 1.0181924
-0.18815641 -0.085705914 1.0177648
-0.24094835 -0.073305465 1.0172
-0.23412798 -0.074145608 1.0142695
-0.22445822 -0.075918756 1.0108573
-0.21505849 -0.076329492 1.0107145
-0.20510185 -0.076277092 1.0111431
-0.19518003 -0.075182252 1.0150573
-0.18927102 -0.075270161 1.016
-0.24399042 -0.064105205 1.0120627
-0.23587017 -0.065296382 1.0106524
-0.2284418 -0.069949232 1.01
-0.20099334 -0.066407494 1.01
-0.1958842 -0.065739386 1.0113931
-0.25057763 -0.053126 1.01
-0.24579126 -0.055974621 1.0104288
-0.23995243 -0.055782299 1.01
-0.25057763 -0.046042532 1.01
-0.24851161 -0.045747388 1.0100001
-0.24880676 -0.039844498 1.01
-0.20208086 -0.10298803 1.0245
-0.19511604 -0.10338458 1.0225002
-0.18904616 -0.10482654 1.0220001
-0.20226146 -0.096538976 1.0220002
-0.19588798 -0.096925855 1.022
-0.18761262 -0.096583769 1.0220001
-0.2047867 -0.039845377 1.057
-0.040222343 -0.081380092 1.067
-0.038351536 -0.081380092 1.067
-0.19306397 -0.07371027 1.0623077
-0.18569383 -0.07371603 1.0644286
-0.042668786 -0.074040778 1.0670002
-0.037883833 -0.076235369 1.067
-0.051447183 -0.060801215 1.067
-0.044342607 -0.063771136 1.0663042
-0.03741613 -0.060801215 1.067
-0.044914801 -0.055282332 1.0624782
-0.038823184 -0.055565108 1.0607501
-0.044351365 -0.04756156 1.0600002
-0.039958466 -0.048321865 1.0600001
-0.10244244 -0.14398593 1.077
-0.074353389 -0.13336402 1.077
-0.072323419 -0.12859595 1.077
-0.065525398 -0.12481928 1.0769999
-0.051929351 -0.11046789 1.077
-0.070812747 -0.10291453 1.077
-0.065345354 -0.1014585 1.0758573
-0.053735584 -0.10422818 1.0769998
-0.046968393 -0.10345729 1.0738889
-0.063042924 -0.095836446 1.0757692
-0.055209778 -0.095443718 1.0755184
-0.045494031 -0.09444008 1.0736667
-0.061143115 -0.087481692 1.0730001
-0.055315841 -0.085717894 1.0725
-0.045297526 -0.085698187 1.0725862
-0.03854024 -0.086482503 1.07225
-0.19641717 -0.070484005 1.072
-0.18274538 -0.071181819 1.0712001
-0.053776875 -0.076019675 1.072
-0.046295501 -0.075501025 1.0701303
-0.03801731 -0.07180886 1.0707501
-0.1946393 -0.064878024 1.07256
-0.18598242 -0.065440141 1.0725499
-0.052522097 -0.066224404 1.0725714
-0.046767659 -0.067136392 1.0700001
-0.037005149 -0.065369353 1.0713999
-0.13019201 -0.14824784 1.0840001
-0.12414268 -0.14713992 1.0860769
-0.1151104 -0.14397754 1.0844814
-0.10655255 -0.14272031 1.0814615
-0.09543369 -0.14286859 1.0821334
-0.087744981 -0.14222923 1.0840001
-0.12102295 -0.13817582 1.087
-0.11334818 -0.13684343 1.0864999
-0.10459729 -0.13546298 1.0846537
-0.094806321 -0.13513124 1.0846175
-0.084859684 -0.13492836 1.0838845
-0.078147233 -0.1328793 1.0826668
-0.10196422 -0.12864645 1.087
-0.092926331 -0.12738548 1.0843751
-0.084115215 -0.12537844 1.0841665
-0.075432844 -0.12447754 1.0845832
-0.066971377 -0.12217472 1.082
-0.059869319 -0.12068895 1.0840001
-0.081409603 -0.11815479 1.0840001
-0.074630313 -0.1154004 1.083818
-0.065531887 -0.11492147 1.0833598
-0.058021888 -0.11367211 1.082
-0.071818866 -0.10851964 1.0826668
-0.065063722 -0.10666022 1.0811764
-0.058295827 -0.10698839 1.08
-0.12319885 -0.14257273 1.0915
-0.11657913 -0.13855717 1.09
