# .PCD v0.7 - Point Cloud Data file format
VERSION 0.7
FIELDS x y z
SIZE 4 4 4
TYPE F F F
COUNT 1 1 1
WIDTH 257
HEIGHT 1
VIEWPOINT 0 0 0 1 0 0 0
POINTS 257
DATA ascii
-0.22227511 0.01785266 1.01825
-0.21406829 0.018043444 1.0163749
-0.20931293 0.01870456 1.016
-0.22321919 0.026688037 1.0190001
-0.21504079 0.024861649 1.0188752
-0.20917596 0.024533518 1.0175
-0.19921111 0.020546436 1.0190001
-0.22389932 0.034271136 1.0190003
-0.21553458 0.034352347 1.0190003
-0.20776148 0.034711991 1.0190001
-0.20993099 0.041986197 1.0190001
-0.22333081 0.054492723 1.0190001
-0.21573758 0.055386048 1.0190001
-0.21350427 0.061639309 1.0190001
-0.22607888 0.018217718 1.0220001
-0.23435389 0.025608376 1.0256665
-0.22617881 0.023180883 1.0226431
-0.21682072 0.025683997 1.0220002
-0.20440218 0.026231464 1.0242499
-0.19523083 0.026093984 1.0262499
-0.2345642 0.035128716 1.0251303
-0.22802013 0.037182067 1.0220001
-0.21413285 0.038525995 1.0220001
-0.2034907 0.035106156 1.0242857
-0.19640693 0.035138112 1.0276999
-0.23287916 0.042342231 1.027625
-0.2250787 0.044631753 1.0240356
-0.21535386 0.044916917 1.0229428
-0.20549093 0.044263545 1.0247999
-0.19414711 0.044288192 1.028
-0.18519934 0.048214916 1.028
-0.17213175 0.04866552 1.028
-0.22281075 0.053346705 1.0227501
-0.21499044 0.054559309 1.0228076
-0.20665966 0.054976553 1.0264285
-0.18424982 0.053424202 1.0275384
-0.17693822 0.054974008 1.028
-0.21376212 0.060946856 1.0223752
-0.20483537 0.063455619 1.0257826
-0.19586946 0.065739699 1.0272499
-0.24569461 0.019109581 1.0380001
-0.24391158 0.025338944 1.0348001
-0.19191606 0.029224267 1.031
-0.18464915 0.027698899 1.0325001
-0.17679036 0.028140562 1.0355
-0.16197644 0.028209379 1.0380001
-0.15833652 0.028209379 1.0380001
-0.24329229 0.035038374 1.0344546
-0.23951848 0.037057575 1.031
-0.19161476 0.035249889 1.031
-0.18470241 0.035311434 1.0328002
-0.174338 0.034920495 1.0359398
-0.16561636 0.034781456 1.0380001
-0.15833652 0.03002934 1.0380001
-0.25115448 0.048228938 1.0380001
-0.2435713 0.043982372 1.0380001
-0.23595998 0.046127375 1.0338891
-0.20276219 0.048506256 1.031
-0.19555885 0.045685176 1.031
-0.18453333 0.043061119 1.0325716
-0.17532884 0.045281131 1.0324517
-0.1668191 0.045851193 1.0344349
-0.24660458 0.050048899 1.0380001
-0.23841299 0.051195581 1.0366668
-0.20256132 0.054933589 1.031
-0.19532323 0.055162054 1.0315001
-0.18601024 0.056876522 1.0325001
-0.1751305 0.05514076 1.0311112
-0.165933 0.054633424 1.0343335
-0.15298243 0.056648448 1.0366668
-0.14894742 0.056308299 1.036
-0.2024609 0.060557503 1.031
-0.19410728 0.062922873 1.0327501
-0.18536361 0.065263309 1.0363227
-0.17527097 0.063702852 1.0359049
-0.16843104 0.062102482 1.0366668
-0.18763998 0.07161139 1.034
-0.26427534 0.015504288 1.0455002
-0.25568026 0.014809441 1.0448279
-0.24861865 0.017378513 1.0434
-0.2724238 0.024048192 1.0470001
-0.26480904 0.024740515 1.0452002
-0.25532258 0.024709061 1.0438801
-0.24883832 0.024944672 1.041
-0.17181659 0.028331675 1.0425
-0.16716807 0.028318087 1.0419999
-0.27292386 0.036686748 1.0484999
-0.26480857 0.034819447 1.0452003
-0.2554262 0.034789551 1.0443002
-0.24857396 0.034962505 1.0420909
-0.17065807 0.03011613 1.041
-0.16290186 0.034933634 1.0417501
-0.15731965 0.035079125 1.0450714
-0.26434657 0.041304149 1.0470001
-0.25470322 0.043785408 1.043
-0.2459991 0.045427706 1.0410001
-0.16224848 0.044105925 1.0426877
-0.15570056 0.045335244 1.0463686
-0.14777708 0.048647109 1.0470001
-0.24366686 0.052018762 1.041
-0.16182341 0.05571153 1.0418183
-0.15568647 0.053721804 1.0431253
-0.14782178 0.05150767 1.043
-0.18343461 0.06844575 1.041
-0.17421384 0.06809333 1.0435715
-0.16412625 0.065343663 1.0441155
-0.15824237 0.063993677 1.0458
-0.17571908 0.070473485 1.044
-0.16735829 0.071287908 1.0470001
-0.27397558 -0.024401432 1.057
-0.27150455 -0.018532734 1.057
-0.26433486 -0.014275963 1.0556315
-0.25728774 -0.013889502 1.0560001
-0.29214412 -0.0018526157 1.0562501
-0.2807709 -0.00092663668 1.057
-0.27372846 -0.0012972913 1.057
-0.26459849 -0.0044434057 1.0544286
-0.25559297 -0.0046236455 1.0546802
-0.24833862 -0.0046331831 1.057
-0.29293332 0.0049658385 1.0559092
-0.28311837 0.0056215958 1.057
-0.27514008 0.0042940718 1.0567272
-0.26511249 0.0046168072 1.0536801
-0.25554928 0.0047563878 1.0532309
-0.24611469 0.0042625288 1.0569999
-0.29189053 0.014826187 1.0569999
-0.28470138 0.014611194 1.0550802
-0.27536204 0.014666294 1.0523225
-0.26812062 0.011515893 1.0510001
-0.25131455 0.011728548 1.0522858
-0.24774206 0.01314474 1.0525001
-0.29149994 0.023766724 1.0563334
-0.28461033 0.025017478 1.0532383
-0.27657953 0.025344431 1.0500001
-0.28217316 0.032476556 1.0510001
-0.15294966 0.037083611 1.0523
-0.1491885 0.037992105 1.057
-0.26326299 0.043263499 1.0500001
-0.15206662 0.043999903 1.0500001
-0.17090617 0.072105832 1.0500001
-0.16569 0.072259247 1.0500001
-0.26846075 -0.040222343 1.067
-0.27173465 -0.034142222 1.0670002
-0.26501456 -0.033625286 1.067
-0.25910673 -0.032739118 1.067
-0.24476388 -0.031907648 1.067
-0.23605169 -0.034572311 1.0685
-0.27269101 -0.02476785 1.062
-0.26471466 -0.025093604 1.0661153
-0.25471586 -0.024473947 1.06545
-0.24504346 -0.025237188 1.0661111
-0.23852785 -0.0280621 1.067
-0.28383011 -0.015330622 1.0663999
-0.27522376 -0.01433215 1.0625383
-0.26551682 -0.017149193 1.0600002
-0.25380024 -0.015924232 1.0616843
-0.24647348 -0.014924108 1.0636332
-0.29170507 -0.0057451725 1.066
-0.28542411 -0.0048274212 1.0635216
-0.27515599 -0.0053270641 1.0606818
-0.24403462 -0.0044567422 1.0618421
-0.29086047 0.0037170667 1.0600001
-0.28741106 0.0031597696 1.0603001
-0.27970928 0.0046463334 1.0600001
-0.153329 0.034382865 1.0600001
-0.26546344 -0.040335432 1.0700001
-0.25336751 -0.040755883 1.0712001
-0.24542382 -0.041981749 1.0751538
-0.23704717 -0.040448524 1.0730001
-0.26452541 -0.037834015 1.0700001
-0.25527292 -0.034859929 1.0705355
-0.24514849 -0.03608102 1.0714118
-0.2560831 -0.028453678 1.0700001
-0.29219741 -0.011725416 1.0700001
-0.28851226 -0.012194433 1.0700001
-0.2490084 -0.044499598 1.08
-0.25268888 0.0059668436 1.1079999
-0.24720773 0.0072850999 1.108
-0.24613924 0.01185043 1.108
-0.24308027 -0.012093032 1.1185555
-0.23838057 -0.01275287 1.1190001
-0.25113344 -0.00098099001 1.1190001
-0.24351628 -0.0020705895 1.1185555
-0.23772657 -0.0022889767 1.1190001
-0.25126466 0.0034833723 1.1140001
-0.24465799 0.0040983725 1.11455
-0.25151217 0.011698239 1.1120001
-0.24371333 0.010723387 1.1120001
-0.25236911 -0.010843929 1.1245
-0.24907765 -0.010829464 1.123
-0.23834258 -0.011506834 1.125
-0.25228396 -0.0059138839 1.124125
-0.24550883 -0.0065222904 1.123
-0.23800735 -0.0049269916 1.1238571
-0.10175996 -0.04190116 1.138
-0.10309016 -0.021948228 1.138
-0.097769372 -0.02095058 1.138
-0.10175996 -0.018955287 1.138
-0.09876702 -0.018955287 1.138
-0.18634865 -0.10173629 1.149
-0.17627575 -0.10173629 1.149
-0.18702018 -0.097371362 1.149
-0.17424092 -0.096027784 1.1482002
-0.16486374 -0.096783198 1.1488001
-0.15419281 -0.09525016 1.1487895
-0.14538202 -0.09294118 1.1454445
-0.18030491 -0.087634228 1.149
-0.17597008 -0.088487811 1.1470001
-0.15310808 -0.085619658 1.149
-0.14410529 -0.085387342 1.1481668
-0.13537759 -0.084866434 1.1468825
-0.12707399 -0.081928305 1.1443334
-0.15058985 -0.076050393 1.149
-0.14565413 -0.077561326 1.149
-0.1344436 -0.075902261 1.149
-0.12565359 -0.075386427 1.1466002
-0.11737499 -0.073837981 1.1460001
-0.13376811 -0.066078231 1.149
-0.12561572 -0.065321371 1.1462803
-0.11697675 -0.06497591 1.1481112
-0.12419143 -0.055915739 1.1434445
-0.11549763 -0.055242594 1.1456404
-0.1062521 -0.054414604 1.1470002
-0.12103347 -0.049013555 1.141
-0.11473207 -0.045771811 1.1450002
-0.10586732 -0.045699425 1.1438574
-0.099027388 -0.046012726 1.141
-0.11262011 -0.038212147 1.1470001
-0.10522445 -0.035072379 1.1430802
-0.097050942 -0.034983493 1.1442502
-0.10414133 -0.027638143 1.1422001
-0.095871843 -0.02622034 1.1415333
-0.18295419 -0.10006887 1.153
-0.22010382 -0.093315899 1.1570001
-0.21788497 -0.094246924 1.156
-0.18407881 -0.09433113 1.1555882
-0.17458203 -0.092449233 1.1537999
-0.16341212 -0.092993289 1.153
-0.15869507 -0.092993289 1.153
-0.17198357 -0.088015571 1.154
-0.16466285 -0.086121686 1.1535
-0.15869507 -0.085917719 1.153
-0.16172746 -0.079852939 1.153
-0.15510112 -0.078729831 1.153
-0.14309993 -0.07451015 1.153
-0.13847914 -0.073788159 1.153
-0.14050074 -0.068734169 1.153
-0.13746834 -0.068734169 1.153
-0.11219843 -0.06570179 1.153
-0.22188258 -0.091602899 1.161
-0.21882915 -0.09058509 1.161
-0.19033048 -0.092620708 1.161
-0.18829484 -0.092620708 1.161
-0.11215372 -0.064239502 1.1630001
-0.10890567 -0.061068602 1.161
-0.23073691 -0.091677412 1.1750001
-0.2262326 -0.091521367 1.1730001
