# .PCD v0.7 - Point Cloud Data file format
VERSION 0.7
FIELDS x y z
SIZE 4 4 4
TYPE F F F
COUNT 1 1 1
WIDTH 237
HEIGHT 1
VIEWPOINT 0 0 0 1 0 0 0
POINTS 237
DATA ascii
0.16739425 -0.0362151 0.91800004
0.16980858 -0.01046214 0.91800004
0.16819902 -0.0056334599 0.91800004
0.14847226 -0.03172832 0.92800003
0.15536955 -0.033352058 0.9278965
0.16435701 -0.032831501 0.92470843
0.17344008 -0.032314986 0.92620003
0.14725193 -0.02337591 0.92800021
0.15517271 -0.024375606 0.92673802
0.16517857 -0.024702111 0.92258972
0.17461878 -0.024576314 0.92302644
0.18429643 -0.022735393 0.92609102
0.19151981 -0.020859113 0.92700005
0.14639829 -0.014640771 0.92775005
0.15489697 -0.014600469 0.92509514
0.16467877 -0.014531191 0.92083335
0.17478907 -0.014787225 0.92202961
0.18457906 -0.014571369 0.92344451
0.19314894 -0.014438736 0.92621738
0.14625026 -0.0047417432 0.92724997
0.15449797 -0.0048555234 0.92271435
0.16407913 -0.0047383849 0.92000002
0.1750949 -0.0047502192 0.92225015
0.18479247 -0.0048608724 0.92449993
0.19225444 -0.0064296322 0.92745459
0.14707117 0.0020790638 0.92800003
0.15470186 0.0028395227 0.92433339
0.16496378 0.0039491402 0.92506903
0.1741493 0.0043220506 0.92506438
0.18339428 0.0018968146 0.92700016
0.13814864 -0.031247906 0.93800002
0.14321606 -0.031208014 0.93266678
0.15735289 -0.035057899 0.93000007
0.17744325 -0.033732817 0.93275011
0.18474105 -0.031747822 0.9345001
0.19252478 -0.030788094 0.93650007
0.13691872 -0.023944518 0.93485719
0.14341967 -0.025205169 0.93028587
0.18662672 -0.027086131 0.93109095
0.19522808 -0.024911547 0.93371445
0.20405984 -0.021341838 0.9363001
0.21133453 -0.020557834 0.93800002
0.13611859 -0.014771157 0.93460006
0.1418622 -0.014675401 0.93000025
0.19866143 -0.014675401 0.93000025
0.205191 -0.015009175 0.93373358
0.21065861 -0.018033033 0.93500006
0.1360932 -0.0048456867 0.93442863
0.14199808 -0.0051635667 0.93000025
0.19615909 -0.0039919247 0.9304738
0.20408665 -0.0048326952 0.93419355
0.13732238 0.0035275309 0.93520004
0.14429843 0.0059068864 0.93296444
0.15511033 0.0077792644 0.93368745
0.16418226 0.008739491 0.93042868
0.17719187 0.0078812335 0.93000013
0.18602046 0.0058972393 0.93111128
0.19497694 0.0051101176 0.93203139
0.20332919 0.0047444049 0.93569559
0.14578441 0.011159966 0.93800008
0.1553106 0.013516095 0.93775988
0.16504841 0.014872628 0.93600017
0.17409742 0.014023271 0.93578261
0.18626855 0.012824066 0.93557888
0.19488217 0.013706121 0.93514287
0.20264654 0.01397604 0.93775004
0.15555844 0.025055818 0.93672961
0.1650068 0.024631696 0.93402863
0.17233743 0.024475655 0.93699998
0.15506446 0.032233529 0.9359048
0.16549346 0.032856371 0.93491668
0.17323244 0.034582961 0.93695003
0.17203356 -0.05152696 0.94800007
0.12979138 -0.030587776 0.94300002
0.13355108 -0.0313267 0.94037503
0.17939317 -0.037201349 0.94300002
0.18515085 -0.037126344 0.94566661
0.19475938 -0.035065547 0.94609094
0.20070581 -0.033243202 0.94800007
0.1286917 -0.025712499 0.94615388
0.1323152 -0.025678664 0.94112504
0.19860007 -0.028842334 0.94000006
0.20552041 -0.025427777 0.94421428
0.21226659 -0.023330202 0.94360006
0.12766002 -0.014583972 0.94612503
0.13126205 -0.014715476 0.94000006
0.12664773 -0.0048933565 0.94545162
0.13126206 -0.0052975714 0.94000006
0.21013699 -0.00082406664 0.94000006
0.12723769 0.0035659731 0.94555008
0.13330282 0.0062340559 0.94181842
0.2082534 0.0055330181 0.94000006
0.21013698 0.0041203331 0.94000006
0.13710476 0.014099354 0.94586945
0.1446428 0.01589733 0.94145197
0.15382576 0.017168056 0.94000024
0.17799839 0.016481334 0.94000006
0.18378356 0.016590172 0.94134998
0.19455568 0.018549062 0.94037503
0.20448627 0.014009133 0.94000006
0.13602009 0.020777 0.94800013
0.14501379 0.024653247 0.94367516
0.15121622 0.021837767 0.94000006
0.17777298 0.024550635 0.94264716
0.18426274 0.023553219 0.94700003
0.19383976 0.02284058 0.94642097
0.14613888 0.032668937 0.94344997
0.15080419 0.033786736 0.94000006
0.16571291 0.037571553 0.94042861
0.17682113 0.034219611 0.94200009
0.18387644 0.033450969 0.94800001
0.16893366 0.040379267 0.94000006
0.17222993 0.040379267 0.94000006
0.19588853 -0.081550166 0.95900005
0.17649238 -0.074694209 0.95730424
0.18542603 -0.074483089 0.95596772
0.19491863 -0.075700268 0.95648479
0.20114346 -0.074779667 0.95840007
0.17554194 -0.065350421 0.95600003
0.18537177 -0.065132678 0.95250022
0.19532172 -0.065030523 0.95271444
0.20467575 -0.064499445 0.95544022
0.21153221 -0.062114902 0.95750004
0.17563112 -0.055838954 0.95468575
0.18521118 -0.055065043 0.95166683
0.19508815 -0.055024866 0.95100009
0.20523758 -0.05506577 0.95166683
0.2144949 -0.054324374 0.95460886
0.22125664 -0.051123694 0.95600003
0.17859423 -0.045466959 0.95236379
0.1850836 -0.045020342 0.95100009
0.19508815 -0.045020334 0.95100009
0.20532984 -0.04507127 0.95208359
0.21526979 -0.045284636 0.95596546
0.22111024 -0.048761953 0.95900005
0.17841393 -0.039184369 0.95100003
0.19725578 -0.038850885 0.95100003
0.20607047 -0.035426445 0.95264542
0.21540287 -0.035240408 0.95710695
0.11742103 -0.022139048 0.95900005
0.12374637 -0.024311628 0.95403457
0.20805928 -0.028531292 0.95160007
0.21512173 -0.027655702 0.9558571
0.11778325 -0.015076606 0.95847052
0.12255105 -0.015814234 0.95409536
0.11829272 -0.0050361585 0.9569999
0.12171521 -0.005234417 0.95154566
0.11814442 0.0018883401 0.95749998
0.12345787 0.0060925833 0.95371437
0.12668088 0.013729636 0.95700002
0.13285977 0.015582492 0.9531765
0.13848849 0.025659742 0.95100009
0.14089699 0.02834614 0.95100003
0.18748742 0.027369214 0.95127279
0.19349653 0.027815599 0.95100015
0.13867377 0.031403076 0.95100003
0.14089699 0.031680979 0.95100003
0.18675104 0.031680979 0.95100009
0.19292049 0.031180751 0.95100003
0.19582717 -0.090707824 0.96700007
0.17623137 -0.082008339 0.96436363
0.18489769 -0.08256565 0.96394998
0.19509332 -0.084569827 0.96339136
0.16908854 -0.07141795 0.96600008
0.17207325 -0.07575956 0.96375006
0.18216431 -0.07843186 0.96200007
0.20518194 -0.073983908 0.96371424
0.21043156 -0.070143856 0.96400005
0.16857634 -0.066891946 0.96340007
0.17120071 -0.066062681 0.96200007
0.20845263 -0.067796722 0.96266675
0.2131929 -0.06519787 0.96580011
0.22251844 -0.045853171 0.96266669
0.11553941 -0.013493653 0.96200007
0.11553941 -0.0075901798 0.96200007
0.12397294 0.014337007 0.96200007
0.18776621 -0.10031346 0.97799999
0.17619878 -0.092922457 0.97600007
0.18513645 -0.094644107 0.97526932
0.19201614 -0.093939722 0.97285736
0.16843545 -0.083279736 0.97530001
0.17430913 -0.086449243 0.9720369
0.18534042 -0.087928608 0.9710716
0.19228064 -0.088767618 0.97049999
0.16692717 -0.076004378 0.97299993
0.17092369 -0.077383369 0.97000003
0.21069017 -0.073357716 0.97300005
0.21688978 -0.065463498 0.97479999
0.22120404 -0.061731357 0.97800004
0.22475415 -0.056907702 0.97681814
0.23063523 -0.052300181 0.97800004
0.17974208 -0.10062117 0.98100007
0.18283811 -0.10130918 0.98100007
0.16730238 -0.092667304 0.9864617
0.17405093 -0.096426941 0.98258829
0.18318212 -0.098901153 0.98100013
0.16632028 -0.086000927 0.98521435
0.1629719 -0.077830903 0.98100007
0.21716739 -0.074999303 0.98330784
0.22515787 -0.075179681 0.98485702
0.2187292 -0.067940794 0.98100013
0.2258002 -0.06591627 0.98211133
0.23309164 -0.063882045 0.98475009
0.22847599 -0.055900652 0.98100013
0.2343431 -0.057147413 0.98516679
0.16374072 -0.091451675 0.99350005
0.16361389 -0.085584439 0.99449998
0.1644837 -0.079617113 0.99800003
0.23915467 -0.058266774 0.99200004
0.16178972 -0.083532304 1.0030001
0.16234551 -0.07985644 1.001
0.11496322 -0.11175068 1.0470001
0.12496144 -0.11420926 1.0470001
0.087112606 -0.10056243 1.046
0.095393382 -0.10456354 1.04625
0.10487984 -0.10471864 1.0467356
0.11413357 -0.10502893 1.0468804
0.12656938 -0.10493565 1.0484998
0.087155133 -0.098164313 1.0465001
0.090782344 -0.098116539 1.046
0.10607956 -0.096900843 1.0470001
0.11289801 -0.097753152 1.0470001
0.10654787 -0.11207088 1.0500001
0.114142 -0.1132215 1.0500001
0.12610851 -0.11291465 1.0500001
0.13486761 -0.11346266 1.0509232
0.095732003 -0.10217549 1.0500001
0.1003345 -0.10309599 1.0500001
0.1180081 -0.1029119 1.0500001
0.1334725 -0.108619 1.0500001
0.087242953 -0.094606943 1.0500001
0.095289014 -0.094724134 1.0517395
0.10470562 -0.094274357 1.0520868
0.11480556 -0.095880076 1.0507274
0.12150601 -0.098493502 1.0500001
0.097020708 -0.089628644 1.054
0.10164073 -0.089628644 1.054
