# .PCD v0.7 - Point Cloud Data file format
VERSION 0.7
FIELDS x y z
SIZE 4 4 4
TYPE F F F
COUNT 1 1 1
WIDTH 293
HEIGHT 1
VIEWPOINT 0 0 0 1 0 0 0
POINTS 293
DATA ascii
0.10517984 0.037511691 0.83900005
0.11106402 0.033098549 0.83900005
0.088507973 0.048299368 0.83900005
0.096462503 0.046229001 0.83900017
0.10516971 0.044862777 0.83891875
0.11216732 0.046337962 0.83900005
0.095016234 0.052890815 0.83900011
0.10581027 0.051591702 0.83900005
0.11235119 0.052038278 0.83900011
0.083985195 0.018580949 0.84780008
0.097272307 0.018563416 0.84700006
0.10331218 0.018580949 0.84780008
0.076504275 0.023896853 0.84870625
0.08541555 0.024510577 0.84724498
0.09496399 0.024480376 0.84628576
0.10421497 0.024911083 0.84609103
0.11476842 0.026860731 0.84753871
0.12181547 0.028034924 0.84900004
0.068590924 0.038237918 0.84860003
0.075176843 0.03511896 0.84617388
0.085143447 0.03479524 0.84455085
0.095213115 0.034811649 0.84274989
0.10525135 0.033725344 0.84181064
0.11534203 0.034685697 0.84361893
0.1250447 0.035188075 0.84672737
0.13099504 0.035725921 0.84900004
0.067818612 0.044964746 0.84815788
0.074725047 0.045133002 0.84397942
0.084681347 0.044829648 0.84252161
0.093174763 0.043302789 0.84109074
0.1161311 0.044414859 0.84159982
0.1252324 0.045200519 0.84524488
0.1324393 0.045386415 0.84871435
0.068420328 0.055034209 0.84833336
0.074780062 0.054886639 0.84420919
0.084925652 0.054837763 0.84341854
0.095082775 0.05536456 0.84199983
0.10502482 0.056194663 0.84224123
0.11572638 0.055458184 0.8426553
0.12486944 0.05473011 0.84510255
0.131952 0.055077467 0.84900004
0.068660751 0.062892504 0.84900004
0.075097047 0.064060993 0.84651238
0.085293144 0.063993998 0.84709769
0.095067404 0.064513691 0.84737867
0.10449082 0.064626388 0.84608346
0.11479795 0.064241275 0.84700018
0.12437034 0.062707774 0.84788018
0.13173933 0.060783684 0.84900004
0.07554543 0.073312566 0.84900004
0.081127606 0.072196126 0.84900004
0.096975178 0.077232294 0.84873337
0.10479737 0.075067334 0.84781629
0.11303918 0.07566528 0.84852022
0.088480078 0.088480093 0.84814292
0.094423935 0.084475152 0.84667569
0.10457437 0.084898375 0.84545457
0.11451118 0.084622592 0.84755576
0.062520362 0.098246276 0.84900004
0.085434817 0.093495332 0.84866673
0.10506821 0.091936029 0.84800005
0.057682473 0.10159558 0.84900004
0.061776072 0.10122344 0.84900004
0.10881187 0.018008485 0.85600007
0.11263338 0.018324587 0.85571426
0.066976264 0.026629549 0.85513055
0.072266728 0.026111515 0.85099989
0.10827162 0.020906966 0.85175002
0.11516728 0.021820761 0.85249996
0.12528618 0.025428593 0.85318756
0.13308507 0.027614782 0.85525006
0.058279634 0.035859715 0.8588571
0.064882144 0.034973402 0.85404778
0.071371473 0.031085139 0.85100001
0.12608132 0.030587776 0.85100001
0.13534333 0.03499905 0.85293549
0.14066739 0.037017733 0.85400003
0.058589239 0.045068707 0.85683328
0.063159198 0.045540519 0.85264283
0.13676602 0.045385428 0.85294998
0.14203756 0.045276403 0.85466677
0.057917178 0.053996723 0.85677773
0.063400537 0.054993793 0.85275
0.13662134 0.055200327 0.85205001
0.14259782 0.054819845 0.85659271
0.059422221 0.062430937 0.85800004
0.064367466 0.065508269 0.85407329
0.074284598 0.068529405 0.85099995
0.085794985 0.069382027 0.85100001
0.092957005 0.069083609 0.85100001
0.11787485 0.069382027 0.85100001
0.12565683 0.068000682 0.85236841
0.13455825 0.06521114 0.8528378
0.14133158 0.063062139 0.8554545
0.066742003 0.07451994 0.85614294
0.075147912 0.074653484 0.852
0.085216261 0.075136259 0.85448676
0.093886323 0.074375339 0.85224241
0.1171531 0.074575759 0.85117638
0.12416039 0.074304536 0.85556686
0.13469574 0.073145166 0.85622221
0.067288257 0.080295652 0.85600013
0.085947059 0.083775699 0.85510355
0.090377323 0.081412524 0.852
0.1171288 0.088779159 0.85100001
0.12192696 0.084254637 0.85323524
0.055947568 0.095332824 0.85591894
0.061489716 0.095459588 0.85254538
0.077317238 0.094690777 0.85628575
0.082730748 0.093985409 0.85263163
0.10557897 0.096492477 0.85212499
0.11430161 0.09421555 0.85363168
0.12058077 0.092194296 0.85220003
0.056089222 0.1027591 0.85309994
0.06042951 0.10370002 0.85100001
0.10550372 0.10200173 0.85622227
0.058403783 0.028392227 0.86200005
0.062791876 0.026603077 0.86000007
0.061068598 0.031665199 0.86000001
0.049518518 0.047994871 0.86900002
0.054294232 0.045570854 0.86303848
0.049010634 0.054851279 0.86900002
0.053547952 0.055431336 0.86289662
0.14626306 0.054283202 0.86000001
0.056406002 0.064474203 0.86447996
0.058264818 0.074026316 0.86066675
0.062704712 0.076496683 0.86028576
0.12753396 0.077426493 0.86080009
0.13315354 0.077977605 0.86216682
0.055037133 0.089718066 0.86000001
0.083686598 0.083686598 0.86000001
0.12783568 0.083207786 0.86283332
0.1325213 0.082542196 0.86379993
0.019045584 0.095989741 0.86900002
0.024871815 0.097038954 0.86755538
0.03509289 0.09729261 0.86617404
0.044925366 0.097030066 0.86133337
0.051183693 0.094074123 0.86000007
0.023480639 0.10073952 0.86400002
0.036816321 0.10136878 0.8642
0.04424376 0.10202914 0.86350006
0.051271845 0.10229677 0.86433339
0.10852958 0.0053879931 0.87800002
0.11438097 0.0063401447 0.87768984
0.1256723 0.0063010422 0.87696677
0.13162099 0.0079537043 0.87800002
0.11521706 0.013408039 0.87728143
0.12480319 0.014526086 0.87750018
0.13179202 0.015137696 0.8780002
0.12902692 0.021205692 0.87433338
0.13435774 0.021637497 0.87800014
0.048614379 0.048105329 0.87100011
0.051159635 0.0458146 0.87100005
0.046878517 0.055239946 0.87158841
0.047755212 0.064641275 0.87512511
0.052738838 0.0665951 0.87187517
0.048407782 0.070691332 0.87650001
0.054080397 0.071685322 0.87299997
0.0084668463 0.094674736 0.87800002
0.015082493 0.094773404 0.87509102
0.025208281 0.093130261 0.87130791
0.032373253 0.093807422 0.87233335
0.09641394 -0.014588372 0.88865513
0.10503665 -0.014588385 0.88751042
0.114863 -0.013933062 0.8868286
0.12436384 -0.011901188 0.8872
0.13089642 -0.010844804 0.88350004
0.096464962 -0.0046681762 0.88741666
0.10445976 -0.0046455399 0.88266653
0.11495101 -0.004541561 0.88087797
0.12543392 -0.0047601815 0.88424313
0.13422833 -0.0036927385 0.8871665
0.14074621 -0.0007776033 0.88700002
0.096586496 0.0046970821 0.88722223
0.1040865 0.0045957053 0.88169438
0.11556569 0.0020058132 0.88000005
0.12350481 0.0023143999 0.88000005
0.13508321 0.0042085485 0.88331258
0.14264295 0.0047429414 0.88669997
0.097419582 0.012358369 0.889
0.10467298 0.013961353 0.88449985
0.11038242 0.015439414 0.88050008
0.12420614 0.016817972 0.88
0.13697937 0.014849316 0.88084602
0.14381288 0.014969224 0.88747996
0.12652053 0.020829599 0.88000005
0.1388258 0.023085514 0.88185722
0.14313678 0.023266245 0.88788891
0.006121764 0.08756078 0.88566673
0.011575799 0.087980218 0.88033336
0.0067717629 0.091461658 0.88000005
0.011131161 0.091584124 0.88000005
0.077085301 -0.032562319 0.89622223
0.088072568 -0.02123199 0.89700007
0.095291972 -0.022138348 0.89539999
0.10484473 -0.02430537 0.89413816
0.114005 -0.023127504 0.89290911
0.12284204 -0.0219079 0.89250004
0.086680032 -0.014400513 0.89508843
0.091950938 -0.015264344 0.89139992
0.10544985 -0.01952775 0.89100003
0.11660855 -0.019081401 0.89099991
0.123839 -0.01719776 0.89164275
0.086267047 -0.0054289293 0.89565217
0.091507785 -0.004692066 0.89216667
0.092186168 0.0032132755 0.89199996
0.14697295 0.0078170178 0.89175004
0.097326308 0.012029094 0.89099997
0.14740661 0.013725219 0.89099991
0.14671007 0.025875228 0.89426655
0.15062653 0.024929477 0.89800006
0.14626482 0.031453922 0.89700001
-0.00078724668 0.078724667 0.89800006
0.00078724668 0.079511911 0.89800006
-0.0015741426 0.084196821 0.89760005
0.0017240526 0.084558353 0.89480007
0.079777546 -0.030805189 0.90100002
0.085470036 -0.032798376 0.90660006
0.094159551 -0.032094475 0.90766668
0.086055413 -0.02558318 0.90613359
0.094770379 -0.026721997 0.90363652
0.10112578 -0.02801213 0.90260011
0.081899755 -0.015589275 0.90411115
0.080788776 -0.0087127518 0.90350002
0.15165633 0.027645685 0.90100002
0.14928669 0.030805189 0.90100002
0.15086645 0.030805189 0.90100002
-0.013048658 0.058719479 0.9076001
-0.00873686 0.0595695 0.90600002
-0.013079764 0.064724736 0.90634632
-0.0061569549 0.066215642 0.90485716
-0.010973968 0.074957781 0.90483338
-0.0049411557 0.074901007 0.90175027
0.00079075334 0.073538303 0.90200007
-0.011108243 0.082510114 0.90500003
-0.0061367336 0.083180085 0.90100002
0.090945393 -0.032708433 0.91000003
0.076779224 -0.022151832 0.9147501
0.081452414 -0.025873149 0.9109
0.13922694 -0.020119499 0.91800004
0.14083649 -0.020119499 0.91800004
0.07747443 -0.01476035 0.9149
0.080574431 -0.0191464 0.91000003
0.14373145 -0.014257384 0.91877508
0.15049386 -0.01126692 0.91800004
0.14610693 -0.0051948633 0.91900003
0.15143277 -0.0050969394 0.91800016
-0.022372883 0.048447758 0.91800004
-0.017705159 0.047213759 0.91800004
-0.021813395 0.053322904 0.91700006
-0.015571529 0.054426175 0.91572005
0.13748106 -0.020218125 0.92250001
0.068965174 -0.014193233 0.92550004
0.072651513 -0.01427596 0.9236365
0.13912804 -0.015527282 0.92318189
0.073871441 -0.0089297267 0.92600006
-0.021613535 0.044749357 0.92066658
-0.013568561 0.047193401 0.92277783
-0.0089200828 0.049465917 0.92500007
-0.011328287 0.05097729 0.92300004
-0.008900797 0.05097729 0.92300004
0.069300503 -0.0122295 0.93000007
0.069300503 -0.0089683002 0.93000007
0.070931099 -0.0089683002 0.93000007
0.015641594 -0.014971606 0.96999985
-0.011585735 -0.003108368 0.96700007
-0.0052882615 -0.0031083685 0.96700025
0.0053176205 -0.0047524623 0.96700048
0.011020577 -0.0067818929 0.96700007
-0.011868313 0.00084773666 0.96700007
-0.0051232781 0.0032803724 0.96700031
0.0042386833 0.0029893878 0.96700019
0.017857701 -0.021259166 0.97000003
0.025259318 -0.022148902 0.9750908
0.033833534 -0.023281161 0.97799999
-0.00085036666 -0.011054766 0.97000003
0.0061955289 -0.01251254 0.97000021
0.025550669 -0.015333704 0.97147208
0.033113975 -0.01613318 0.97513348
-0.011905134 -0.00085036666 0.97000003
-0.0038266499 -0.0076532997 0.97000021
0.0025511 -0.0087871226 0.97000003
0.015852738 -0.0048911148 0.97078091
0.025072496 -0.0056809695 0.97116113
0.032030478 -0.0087871216 0.97000003
-0.012925575 0.0039116861 0.97000015
0.0070612361 0.0071842195 0.9719286
0.014935126 0.0043898788 0.9750002
0.022519372 0.0019966085 0.97550005
0.0077133514 0.011997622 0.97750002
0.01114594 0.01114594 0.97800004
0.027520321 -0.02494029 0.98100007
0.031820368 -0.023220269 0.98100007
