# .PCD v0.7 - Point Cloud Data file format
VERSION 0.7
FIELDS x y z
SIZE 4 4 4
TYPE F F F
COUNT 1 1 1
WIDTH 269
HEIGHT 1
VIEWPOINT 0 0 0 1 0 0 0
POINTS 269
DATA ascii
0.075582691 0.07630945 0.82900006
0.057783734 0.058225404 0.83860004
0.065712377 0.05754612 0.83772004
0.075038955 0.05700561 0.83775866
0.083534442 0.058946941 0.83900011
0.048176773 0.068403669 0.83900011
0.055142958 0.06542138 0.83733362
0.065155722 0.065155499 0.83508116
0.075346194 0.06510254 0.83442831
0.085137524 0.06531857 0.83719051
0.092161328 0.066459313 0.83889467
0.046711255 0.075942658 0.83780015
0.05492755 0.075435326 0.8354488
0.065091446 0.075328864 0.83426505
0.075123973 0.075093046 0.8323192
0.084999263 0.075444475 0.83670735
0.093044616 0.075071938 0.83862978
0.046741839 0.085009083 0.8381539
0.054832999 0.084814355 0.83399993
0.065098964 0.084848061 0.83433312
0.075397715 0.084915206 0.83499962
0.084522463 0.083719917 0.83836365
0.09402439 0.080907576 0.83900005
0.048544541 0.09194041 0.83900005
0.055089191 0.091358967 0.83787507
0.06537196 0.091659971 0.83784205
0.074978381 0.090884328 0.83716673
0.067661196 0.10779621 0.83823073
0.075680912 0.10727879 0.83748001
0.081969991 0.10746813 0.83900011
0.066456936 0.11464315 0.83766681
0.07515572 0.1141947 0.83648729
0.081937298 0.1134177 0.83900005
0.069139197 0.12136135 0.83900005
0.072326459 0.12185171 0.83900005
0.04650278 0.049178723 0.84740007
0.055352394 0.048868433 0.84361547
0.065993488 0.047591787 0.84478962
0.074418753 0.046874221 0.84625018
0.084988445 0.048378114 0.84763163
0.090952232 0.048081137 0.8490001
0.036258809 0.055184603 0.84657145
0.045470376 0.055346079 0.84482235
0.054681547 0.05456543 0.84202558
0.064629748 0.052820295 0.84185719
0.074851364 0.052195959 0.84255558
0.085497484 0.05463627 0.84399986
0.094316609 0.055531606 0.84669721
0.10089645 0.058256548 0.84833336
0.036078457 0.064923391 0.84651363
0.0444097 0.064289778 0.84295005
0.050872091 0.061193962 0.84100002
0.096105553 0.063702285 0.84299994
0.10340403 0.065550454 0.84706062
0.035149112 0.074762546 0.84617388
0.04214225 0.073732749 0.84189999
0.098341838 0.074546628 0.84194112
0.10451822 0.074517936 0.84688592
0.035862248 0.08524625 0.84556401
0.041915607 0.085116073 0.84194738
0.086879477 0.087469064 0.84126663
0.095286116 0.085965864 0.84219992
0.10358033 0.085532755 0.84593338
0.036369178 0.094477132 0.84672427
0.044486012 0.095019124 0.84344453
0.055270638 0.096201561 0.84332001
0.064820625 0.097337253 0.84292012
0.074705094 0.096614353 0.84233344
0.084888339 0.094925053 0.84371442
0.094873548 0.094961911 0.84717155
0.10349572 0.09457536 0.84762084
0.11089921 0.096013412 0.84900004
0.038951177 0.10097534 0.84900004
0.046116233 0.10129727 0.8475334
0.055571832 0.1043622 0.84582049
0.063740514 0.10439286 0.84359455
0.073986061 0.10300341 0.8421306
0.085269332 0.10438167 0.8444857
0.091175526 0.10271202 0.84900004
0.057180699 0.1145188 0.84566671
0.061553393 0.11606326 0.8422727
0.076676778 0.11870154 0.84100002
0.086171679 0.11542928 0.84368742
0.091332011 0.11435065 0.84700006
0.058028024 0.12346389 0.84500009
0.064384103 0.1239154 0.84321064
0.07499288 0.12504731 0.84223068
0.084478579 0.12309297 0.84584624
0.047000732 0.046503365 0.85100001
0.094332844 0.048663765 0.85400003
0.029198259 0.058396518 0.85400003
0.031869814 0.058504701 0.85340005
0.097498775 0.052611981 0.85333341
0.10135069 0.054255147 0.85457146
0.027393075 0.066399984 0.85561907
0.031360775 0.063841276 0.85174996
0.1076112 0.063216798 0.85341668
0.11235019 0.066377029 0.854375
0.026716804 0.075171091 0.85462964
0.030587776 0.077837192 0.85100001
0.10929535 0.076842457 0.85099995
0.11389723 0.074803442 0.85360008
0.026033668 0.085441597 0.85579425
0.030974276 0.084715046 0.85137498
0.10877311 0.084750518 0.85099995
0.11343398 0.084860615 0.85446441
0.026137875 0.092029899 0.85533333
0.031752516 0.096062802 0.85293329
0.096239597 0.099223763 0.85100001
0.10832882 0.092791125 0.85220003
0.11231732 0.092701681 0.85463637
0.02933502 0.10003994 0.85800004
0.035570361 0.10400783 0.85396296
0.045005027 0.10619125 0.85346156
0.051548522 0.10773198 0.85220003
0.094897419 0.10487548 0.85344452
0.10300156 0.10429278 0.85523814
0.039865538 0.11057046 0.85800004
0.045636017 0.11071173 0.85742855
0.052449469 0.1143197 0.85471427
0.093548402 0.11096531 0.85640013
0.055207208 0.12085902 0.85100001
0.09801133 0.050513532 0.86000001
0.10027313 0.050513532 0.86000001
0.0248798 0.066346131 0.86000001
0.018537702 0.078975685 0.86900002
0.022078851 0.076394826 0.86407691
0.017642513 0.083900444 0.86346149
0.021454038 0.083983421 0.86085713
0.025833508 0.096711494 0.86223549
0.026501819 0.10367478 0.86652637
0.034133717 0.10829095 0.86140001
0.10277338 0.10957457 0.86200005
0.03584484 0.11321418 0.86265022
0.044973716 0.11459892 0.8615455
0.0516738 0.1150419 0.86049998
0.09745229 0.11316548 0.86170006
0.10236914 0.11240127 0.86337501
0.076971337 0.019242832 0.87800002
0.084151559 0.017599303 0.87762517
0.090826169 0.019242832 0.87800002
0.076767877 0.02511155 0.87757158
0.085147709 0.025311939 0.8750205
0.093630113 0.026412429 0.87541676
0.075611323 0.03391536 0.87678134
0.084957279 0.035207149 0.87304759
0.095159046 0.035133317 0.87478369
0.10166474 0.034016088 0.87687504
0.077994756 0.041382696 0.87740004
0.085608922 0.043397609 0.87556654
0.094890408 0.04379914 0.87448382
0.10233116 0.045229863 0.87671441
0.10509042 0.051394582 0.87500006
0.018783985 0.075288661 0.87100011
0.02061657 0.072539784 0.87100005
0.017562263 0.080175549 0.87100005
0.019089416 0.1015557 0.87100005
0.022148347 0.10282736 0.87118202
0.10330101 0.1170454 0.87100017
0.07637696 0.0077935667 0.889
0.084669173 0.0070873229 0.88850003
0.091184728 0.0070142099 0.88900006
0.058451753 0.016366489 0.88900012
0.064667359 0.01497662 0.88742536
0.074843504 0.014591373 0.88254339
0.085295729 0.012760921 0.88359255
0.093965732 0.015990693 0.88641661
0.10053701 0.017145846 0.88900006
0.059096098 0.024881553 0.88700008
0.064952984 0.024334395 0.88447219
0.071553536 0.024494069 0.88000005
0.097595327 0.023431897 0.88120002
0.1032951 0.025789317 0.88511777
0.067389883 0.033899158 0.88000005
0.07205499 0.036773242 0.88000005
0.099519201 0.030087199 0.88000005
0.10584413 0.035102129 0.8828181
0.11208352 0.036764771 0.88361549
0.074545696 0.042119939 0.88066673
0.081004001 0.044745065 0.88000005
0.09874773 0.048602398 0.88000005
0.10595416 0.04525521 0.88069218
0.11320902 0.044974204 0.88445836
0.10806713 0.050945289 0.88050002
0.11394519 0.051015127 0.88616663
0.075839162 -0.0015013315 0.89690912
0.08090581 -0.00078549335 0.89600003
0.05792867 0.0076009925 0.89700007
0.065375045 0.0059519527 0.89416677
0.074500509 0.003654619 0.89456671
0.083019458 0.0026050152 0.89199996
0.095367797 0.0080987439 0.8941111
0.055788312 0.014731321 0.89457166
0.062488802 0.01015443 0.89100003
0.097022116 0.012407244 0.89162487
0.10076319 0.01718442 0.89100003
0.056664351 0.022016482 0.89242858
0.05636026 -0.0019533727 0.9078182
0.065800354 -0.0022839906 0.90568751
0.073267221 -0.0047525074 0.903
0.047874514 0.0035252017 0.90800005
0.054162517 0.0042760405 0.90566677
0.063739359 0.0015810684 0.90210009
0.05131017 0.01477204 0.90376472
0.053192917 0.021437129 0.90566677
0.047387339 0.0081372205 0.91000003
0.046649832 0.013504817 0.91168422
0.0502593 0.019944167 0.91000003
0.048743978 0.020774808 0.91150004
0.0502593 0.021539699 0.91000003
0.047874328 0.026812995 0.93616676
0.054508325 0.026520493 0.93480003
0.062522337 0.028196888 0.93225008
0.055642236 0.033230361 0.93727994
0.064289801 0.033585947 0.93620825
0.044499598 0.028842334 0.94000006
0.046629429 0.03297611 0.94200009
0.052550085 0.03657588 0.94000024
0.064025603 0.038195487 0.94033337
0.070045665 0.038731132 0.94000006
0.05611207 0.044316206 0.94512016
0.06467627 0.044779319 0.94583321
0.07250838 0.04594744 0.9468236
0.063993156 0.05152696 0.94800001
0.071472883 0.050695881 0.94800007
-0.03278821 0.019336637 0.95900005
-0.027743869 0.019336637 0.95900005
-0.033508833 0.025341805 0.95899981
-0.027533693 0.024170799 0.95899987
-0.03446966 0.03194749 0.95900005
0.05798953 0.051314585 0.95175004
0.065934978 0.051745247 0.95200008
0.072532773 0.052523728 0.95100003
-0.017802471 0.0093251029 0.96700007
-0.0040497128 0.0068746256 0.96666676
0.0011863054 0.006270621 0.96640003
-0.032927711 0.017306386 0.96312499
-0.024561634 0.015547097 0.96359277
-0.015359996 0.015568322 0.96551555
-0.0051994519 0.014863646 0.96700042
0.00084773666 0.011868313 0.96700007
-0.042354614 0.02710785 0.96625006
-0.037865233 0.025445374 0.96285719
-0.023452148 0.02615298 0.9623
-0.015734214 0.024849966 0.9646132
-0.0087599456 0.022323733 0.96700007
0.0042386833 0.022041153 0.96700007
-0.042277683 0.032975379 0.96450013
-0.03504815 0.032939985 0.96337503
-0.024935326 0.034814298 0.9653337
-0.017983939 0.034786481 0.9646666
0.01498837 -0.0015841366 0.97300005
0.021434499 -0.00085737999 0.97800004
-0.012755501 0.0093540335 0.97000003
-0.0087871216 0.0087871226 0.97000003
0.0063815061 0.0065397238 0.97309524
0.014767945 0.0046776892 0.9757669
0.021412583 0.0025677567 0.97700006
-0.013889323 0.011621677 0.97000003
-0.004535289 0.017290788 0.97000009
0.0043907845 0.015059684 0.97111523
0.011986225 0.011128845 0.97650003
-0.012075206 0.028742392 0.97000009
-0.0053932536 0.025201961 0.97133309
0.00153066 0.022959899 0.97000009
-0.027381804 0.039286938 0.97000009
-0.01313344 0.033353269 0.97000015
-0.0093829632 0.031560875 0.97300005
-0.027317591 0.04353768 0.97375
