# .PCD v0.7 - Point Cloud Data file format
VERSION 0.7
FIELDS x y z
SIZE 4 4 4
TYPE F F F
COUNT 1 1 1
WIDTH 252
HEIGHT 1
VIEWPOINT 0 0 0 1 0 0 0
POINTS 252
DATA ascii
-0.012432011 -0.16075875 0.97800004
-0.0062874532 -0.16118744 0.9780001
-0.015502461 -0.15488444 0.97641683
-0.0049961233 -0.15504222 0.97415149
0.0042662583 -0.15354012 0.97299981
0.015256805 -0.15157954 0.97759992
0.021434499 -0.15004151 0.97800004
-0.013778771 -0.1470692 0.97753841
-0.0047727711 -0.14602444 0.97558069
0.0051266728 -0.14523424 0.97452766
0.015282844 -0.14491896 0.97703248
0.02229188 -0.14275376 0.97800004
-0.01629022 -0.13117914 0.97800004
-0.00085737999 -0.13718081 0.97800004
0.0052658608 -0.13551502 0.97782886
0.014781232 -0.13680354 0.97800016
0.025292709 -0.13803817 0.97800004
-0.016780151 -0.12603486 0.9780001
-0.0033342559 -0.12508221 0.9780001
0.0020005533 -0.12803541 0.9780001
-0.0042869002 -0.11917582 0.97800004
-0.042484142 -0.18120788 0.98900002
-0.038149029 -0.18120788 0.98900002
-0.042236421 -0.17773978 0.98899996
-0.035456691 -0.1768271 0.98900014
-0.027744748 -0.17513871 0.98900002
-0.032079864 -0.16213337 0.98900002
-0.02478775 -0.16241458 0.98859996
-0.013760161 -0.1634019 0.98100007
-0.0094601102 -0.1625419 0.98100007
-0.031501848 -0.15750924 0.98900002
-0.023834923 -0.15513898 0.98862517
-0.01978023 -0.15136176 0.98100007
-0.02304529 -0.14606231 0.98820013
-0.01635083 -0.14332891 0.98168188
-0.0067080781 -0.14121364 0.98100007
0.025120709 -0.14418267 0.98130018
0.034719471 -0.14420952 0.98500001
0.044598177 -0.14333159 0.98888904
0.052888423 -0.14363687 0.98900002
-0.023850011 -0.13530278 0.98722237
-0.015776053 -0.1351257 0.98175019
-0.0056436872 -0.134923 0.98166686
0.00086000998 -0.13330156 0.98100007
0.016965652 -0.13283244 0.98100001
0.024862111 -0.13463068 0.98100019
0.035358399 -0.13516319 0.98529631
0.043238077 -0.13544415 0.98900014
-0.022554127 -0.12779394 0.98400009
-0.014694955 -0.12634669 0.98100024
-0.0057652523 -0.12559332 0.98100036
0.0056642038 -0.12511663 0.98100036
0.015626179 -0.12519071 0.98270303
0.025023211 -0.12505285 0.98423541
0.034650989 -0.12497079 0.98484361
0.041950587 -0.12518483 0.98900008
-0.0032250374 -0.11846638 0.98100001
0.0054892255 -0.11717342 0.9824211
0.015288331 -0.11476947 0.98797297
0.025440371 -0.11521783 0.98882616
0.034173612 -0.11663283 0.98776937
0.040750097 -0.11791517 0.98900002
0.01820749 -0.10751089 0.98900002
0.025138417 -0.10623457 0.98877782
0.034834556 -0.10370657 0.98769248
0.04244294 -0.10307145 0.98800004
0.054622471 -0.10490982 0.98900002
-0.04724532 -0.23360187 0.99800009
-0.039371099 -0.23097712 0.99800003
-0.044620577 -0.22572763 0.99800009
-0.053369712 -0.21260394 0.99800003
-0.025372487 -0.2140846 0.99800009
-0.063804679 -0.20714493 0.99700004
-0.03302798 -0.20341733 0.99800009
-0.024638686 -0.20430635 0.99799967
-0.01720663 -0.20297988 0.99800009
-0.054566961 -0.19427681 0.99799997
-0.045608465 -0.19380096 0.99771428
-0.034817029 -0.19482413 0.99717242
-0.02545581 -0.19602224 0.99799991
-0.01837318 -0.19860533 0.99800003
-0.072423384 -0.18557885 0.99800003
-0.064127907 -0.18486595 0.99799973
-0.055119541 -0.18548162 0.99799973
-0.04566332 -0.18531267 0.99443775
-0.034375969 -0.18542209 0.99360013
-0.026982376 -0.18429318 0.99687511
-0.073574625 -0.17475748 0.99742842
-0.064982198 -0.17511527 0.99799973
-0.055119537 -0.17498265 0.99799973
-0.045838472 -0.17398207 0.99374223
-0.034135692 -0.17242718 0.99310523
-0.027673954 -0.17301346 0.99425
-0.071742892 -0.16885827 0.99800003
-0.063550524 -0.16591538 0.99799991
-0.055052236 -0.16468559 0.99799979
-0.045348827 -0.16453932 0.99735105
-0.035526801 -0.16496536 0.99461323
-0.027632533 -0.16449006 0.99274999
-0.060369018 -0.15835932 0.99800003
-0.055119537 -0.15835932 0.99800003
-0.046688553 -0.15724578 0.99800009
-0.034908868 -0.15667416 0.99533325
-0.02759173 -0.15471922 0.99199998
-0.027828906 -0.14871071 0.99200004
0.048990469 -0.14059395 0.99200004
0.054193955 -0.14131288 0.99379998
0.048463404 -0.13448001 0.99199998
0.054520994 -0.13512881 0.99500006
0.060995311 -0.13684626 0.99680007
0.047031682 -0.12512346 0.99265224
0.052928247 -0.12570022 0.99671429
0.023698052 -0.11196786 0.99200004
0.035120614 -0.11151632 0.99199992
0.045502082 -0.11494408 0.9940002
0.054128863 -0.11485348 0.99731803
0.060369018 -0.11461364 0.99800003
0.01826272 -0.10870667 0.99200004
0.025799714 -0.10783701 0.99200004
0.034795996 -0.1078644 0.99224997
0.04423273 -0.1073739 0.99574995
0.053090822 -0.10771307 0.99687505
-0.051258408 -0.23383611 1.0023333
-0.046158779 -0.23149593 1.001
-0.033246268 -0.23254132 1.0047501
-0.027928259 -0.23312028 1.006
-0.052566208 -0.22439966 1.0023636
-0.044776183 -0.22432411 1.0015
-0.035200071 -0.22528537 1.0038333
-0.024911735 -0.22434025 1.0046428
-0.015251996 -0.22375906 1.0065714
-0.06131874 -0.21358871 1.0040001
-0.054444026 -0.21508084 1.0011033
-0.044754706 -0.2149981 1.0009999
-0.035409719 -0.21519424 1.0034374
-0.023900149 -0.2152046 1.0010002
-0.016594371 -0.21471764 1.0025882
-0.063183114 -0.2042921 1.001
-0.05440769 -0.20534514 1.0009998
-0.044780482 -0.20546751 1.0015999
-0.036493104 -0.20616442 1.0016667
-0.02369367 -0.20797777 1.001
-0.017274132 -0.20730798 1.002
-0.071519785 -0.19174321 1.001
-0.065063573 -0.19494002 1.0009998
-0.056037407 -0.19845013 1.001
-0.04475471 -0.19854416 1.001
-0.039489448 -0.19920233 1.001
-0.023028348 -0.1926752 1.0014616
-0.018428409 -0.19569217 1.001
-0.073421128 -0.18252902 1.001
-0.068009607 -0.18472287 1.001
-0.023704628 -0.1878885 1.0015
-0.071081012 -0.17901884 1.001
-0.062305581 -0.17404608 1.001
-0.063183121 -0.16234551 1.001
-0.055724002 -0.16366182 1.001
-0.062162306 -0.15608963 1.0027143
-0.054562099 -0.15536626 1.0028001
-0.043797389 -0.15516563 1.0010002
-0.038611904 -0.15444763 1.001
0.060550489 -0.14128448 1.001
0.058093369 -0.13215803 1.001
0.061428029 -0.13250904 1.001
0.057414826 -0.12413372 1.0014002
0.062472139 -0.12494196 1.0036665
0.048264883 -0.111448 1.001
0.058210373 -0.11788332 1.001
0.062430937 -0.11782664 1.0030001
0.047387339 -0.10881537 1.001
-0.023291677 -0.23302191 1.0113639
-0.015938358 -0.23180078 1.015182
-0.021250401 -0.22932723 1.01
-0.014298308 -0.22410819 1.0104287
-0.0093246652 -0.22290389 1.013
-0.0132815 -0.21870203 1.01
-0.061986823 -0.15364021 1.0130001
-0.055472218 -0.15211803 1.0119413
-0.048843484 -0.15008271 1.013
-0.053283799 -0.14830658 1.013
-0.048843484 -0.14830658 1.013
-0.015231207 -0.23563573 1.0220001
0.045634884 -0.29237798 1.077
0.053685606 -0.29133973 1.0743334
0.062083781 -0.29066497 1.0730001
0.04815267 -0.28986019 1.077
0.054027509 -0.28902096 1.077
0.063259393 -0.28986019 1.077
0.044153839 -0.29164034 1.0807999
0.046393201 -0.28782716 1.08
0.056167711 -0.28539661 1.080909
0.065431945 -0.28447339 1.0816666
0.074031986 -0.28316581 1.0843749
0.083858423 -0.28159279 1.087
0.059869319 -0.27843985 1.0840001
0.06605459 -0.27670774 1.0860624
0.075282007 -0.27539873 1.087
0.084811352 -0.27539873 1.087
0.075554252 -0.26831976 1.087
0.084320687 -0.26540384 1.0864706
0.10768184 -0.26110464 1.087
0.087272741 -0.25864181 1.0860001
0.1141618 -0.25405291 1.087
0.11911708 -0.24585766 1.087
0.12864645 -0.22203425 1.087
0.1310288 -0.22155777 1.087
0.1283288 -0.21472842 1.087
0.13150527 -0.21441074 1.087
0.12864645 -0.20678724 1.087
0.1312426 -0.20705536 1.0863999
0.12785277 -0.19518749 1.0843333
0.13066716 -0.19671348 1.0840001
0.12491405 -0.18525881 1.0849442
0.11783803 -0.17390612 1.0840001
0.12578765 -0.17819916 1.087
0.079312034 -0.28189215 1.09
0.081223167 -0.28189215 1.09
0.0688008 -0.27329206 1.09
0.07275106 -0.27140111 1.092
0.088867702 -0.27042538 1.09
0.094111279 -0.27457726 1.0923636
0.10134208 -0.27205715 1.0940001
0.079312034 -0.26660311 1.09
0.086478785 -0.26588643 1.09
0.094766617 -0.2651616 1.09192
0.10257269 -0.26470369 1.0921333
0.088664837 -0.2552627 1.0922
0.094675437 -0.25490406 1.0924138
0.10477127 -0.25449041 1.0909698
0.11290535 -0.25343043 1.0921539
0.097780332 -0.24660721 1.0935
0.10475834 -0.24486351 1.094625
0.11436467 -0.2448177 1.0930001
0.12229324 -0.24107106 1.0926667
0.10617875 -0.2349387 1.0933334
0.11540819 -0.23530029 1.093226
0.12405207 -0.23434664 1.0946667
0.10833348 -0.22497787 1.0906155
0.11570869 -0.22472441 1.0908
0.12514463 -0.2252657 1.0926087
0.10925312 -0.2181877 1.09
0.11553381 -0.21480848 1.0911852
0.12409624 -0.21494271 1.0902106
0.11702535 -0.20546676 1.0933636
0.12465408 -0.20479579 1.0914401
0.13091263 -0.20353571 1.09
0.11817802 -0.1959814 1.0943637
0.12354046 -0.19495781 1.0910001
0.11944583 -0.1806021 1.09
0.12349603 -0.18189254 1.092
0.11944583 -0.1777354 1.09
0.12407043 -0.17671916 1.092
