# .PCD v0.7 - Point Cloud Data file format
VERSION 0.7
FIELDS x y z
SIZE 4 4 4
TYPE F F F
COUNT 1 1 1
WIDTH 233
HEIGHT 1
VIEWPOINT 0 0 0 1 0 0 0
POINTS 233
DATA ascii
-0.146658 0.077498212 1.1190001
-0.1370116 0.076190226 1.1190001
-0.16090165 0.066137485 1.126
-0.15355769 0.067417666 1.1238573
-0.14493258 0.067041896 1.1246499
-0.13795096 0.06490358 1.126
-0.16204332 0.076186448 1.1257001
-0.15479805 0.075618617 1.1235766
-0.14428878 0.075451493 1.1232855
-0.13528064 0.074908726 1.1249564
-0.12832646 0.079957262 1.126
-0.16139522 0.083412208 1.126
-0.1555154 0.084898889 1.1253685
-0.1462429 0.082864068 1.12525
-0.13354413 0.084892906 1.1260002
-0.12672237 0.086126804 1.1260002
-0.15451437 0.096215792 1.1260002
-0.14536537 0.095665678 1.128
-0.13375565 0.095010951 1.126
-0.12753676 0.095751286 1.1260002
-0.1520175 0.10167404 1.126
-0.14444953 0.10200309 1.126
-0.13516481 0.10260594 1.1254001
-0.12635221 0.10266117 1.126
-0.13069171 0.058861151 1.138
-0.12769878 0.058861151 1.138
-0.14166057 0.0624099 1.13
-0.13308115 0.064557895 1.1312
-0.12595545 0.065353021 1.1365883
-0.16741703 0.078260034 1.13
-0.13224235 0.075145409 1.1308
-0.12599204 0.074340321 1.1331669
-0.1139994 0.078435369 1.1373334
-0.10695451 0.07739155 1.1366667
-0.16468534 0.08449021 1.1308889
-0.15354817 0.088166364 1.13
-0.14435543 0.086786486 1.1322857
-0.13761036 0.086339973 1.132
-0.12270703 0.084120765 1.1322501
-0.11440621 0.08455842 1.1348003
-0.10682768 0.083937906 1.1353334
-0.16228853 0.093655616 1.1305001
-0.15508914 0.092349038 1.13
-0.13658358 0.094357803 1.13
-0.12321088 0.094927773 1.1310526
-0.11446762 0.094562672 1.1354402
-0.10874349 0.092781149 1.138
-0.1367074 0.10005397 1.13
-0.12201762 0.10098954 1.1316
-0.11529044 0.10107742 1.1351429
-0.2004507 0.059430111 1.149
-0.19339967 0.059430111 1.149
-0.12203375 0.059016325 1.141
-0.11521298 0.058444355 1.1472224
-0.10878732 0.058422819 1.149
-0.20340209 0.066658407 1.1486001
-0.19484732 0.065775841 1.1459527
-0.18667221 0.067325242 1.1462309
-0.12170032 0.061683726 1.141
-0.11543198 0.065241985 1.1450003
-0.10595393 0.065969564 1.1480911
-0.096843742 0.066912837 1.149
-0.089648813 0.067488432 1.149
-0.2316767 0.079575911 1.149
-0.22456445 0.077230617 1.1486924
-0.21452264 0.07553567 1.1488401
-0.20512947 0.075414896 1.1470002
-0.19571066 0.075272657 1.1448404
-0.18569994 0.075283743 1.1450003
-0.11547329 0.074010372 1.143316
-0.10450722 0.073804043 1.1435003
-0.0954879 0.075386427 1.1466002
-0.085811511 0.075930491 1.149
-0.23066942 0.083605073 1.149
-0.22334367 0.084703915 1.149
-0.21449302 0.085595518 1.1486801
-0.20454201 0.085690811 1.146273
-0.19521327 0.084982589 1.1439568
-0.18609658 0.084838219 1.1446366
-0.17967722 0.083314016 1.1450001
-0.10220706 0.086178079 1.143
-0.095893495 0.085230336 1.147261
-0.088977285 0.082933538 1.149
-0.22261108 0.09770713 1.149
-0.21420082 0.095524639 1.1480911
-0.20495257 0.09544339 1.1460003
-0.19562972 0.095306672 1.1443603
-0.18640393 0.09523309 1.1446193
-0.10371086 0.095572405 1.1433532
-0.09682925 0.094815217 1.1477695
-0.20329712 0.10315349 1.1455716
-0.19559434 0.10324628 1.1450002
-0.18636705 0.10322435 1.1454003
-0.10602932 0.10102794 1.141
-0.23186974 0.059032451 1.1570001
-0.20409273 0.055732448 1.1559331
-0.19569527 0.054938737 1.155476
-0.10354029 0.058039706 1.1533999
-0.095087647 0.058401875 1.1552222
-0.089960903 0.059637003 1.153
-0.23207472 0.065539226 1.1552856
-0.22542377 0.068445593 1.1559091
-0.21518083 0.068950906 1.1547778
-0.20679207 0.064485259 1.1553332
-0.19912694 0.062669389 1.153
-0.18755174 0.063751489 1.1543332
-0.10310125 0.061658595 1.153
-0.09400408 0.064084508 1.153
-0.086827688 0.065733351 1.1535714
-0.23233883 0.074654557 1.153
-0.22547339 0.073977359 1.1533333
-0.085917711 0.071766563 1.153
-0.079852939 0.073788159 1.153
-0.23147243 0.088950105 1.153
-0.22641842 0.08663971 1.153
-0.091982499 0.088950105 1.153
-0.085553028 0.086192146 1.153842
-0.22448875 0.093452744 1.153
-0.21934287 0.095014885 1.153
-0.093715295 0.094581686 1.153
-0.087625816 0.0926833 1.1542
-0.22237527 0.10006887 1.153
-0.21238945 0.10282569 1.1536666
-0.20842628 0.10451637 1.153
-0.21179682 0.027670229 1.169
-0.2037475 0.026873261 1.1668181
-0.19750237 0.027839301 1.1638573
-0.23161006 0.038943287 1.169
-0.22366835 0.035746083 1.1650001
-0.21152164 0.035840765 1.1681111
-0.20421363 0.036067858 1.1650002
-0.19668369 0.036015436 1.1655
-0.23304994 0.045351218 1.1681427
-0.22504373 0.045160275 1.1675001
-0.21475479 0.046103507 1.165889
-0.20472191 0.045830484 1.1618
-0.19493181 0.046052758 1.1631664
-0.18861921 0.048937283 1.1630001
-0.23326071 0.052758176 1.1669999
-0.22501239 0.054370057 1.1642729
-0.21525106 0.054351769 1.1622174
-0.20865105 0.054961741 1.161
-0.19033046 0.055301011 1.161
-0.18829484 0.056997359 1.161
-0.101781 0.05597955 1.161
-0.09770976 0.05597955 1.161
-0.2246947 0.063072808 1.1614209
-0.21521027 0.062991135 1.1609999
-0.19033048 0.060050789 1.161
-0.18829484 0.060050789 1.161
-0.21617337 0.027381983 1.1742002
-0.20875099 0.02673658 1.1730001
-0.22378583 0.036231231 1.1742002
-0.21663482 0.034791831 1.1730002
-0.20875099 0.033934891 1.1730001
-0.1953827 0.03496322 1.1730001
-0.22432284 0.040692486 1.1730002
-0.21738896 0.040927533 1.1730001
-0.17218083 -0.052978717 1.2590001
-0.16666222 -0.051874995 1.2590001
-0.14017287 -0.051874995 1.2590001
-0.13686168 -0.051874995 1.2590001
-0.19352494 -0.042445488 1.2543
-0.18410105 -0.044811167 1.2589999
-0.17494015 -0.046494346 1.2590001
-0.16842818 -0.04701861 1.2590001
-0.11662297 -0.049509749 1.2550001
-0.19491011 -0.035384636 1.2544706
-0.18420187 -0.036402531 1.2582
-0.0805718 -0.024281913 1.2590001
-0.078364357 -0.024281913 1.2590001
-0.087194145 -0.0099335099 1.2590001
-0.073949464 -0.0066223401 1.2590001
-0.17618896 -0.052081011 1.2640001
-0.16410051 -0.054700181 1.2640001
-0.15488201 -0.053293005 1.2665
-0.14428356 -0.051051803 1.266
-0.13151579 -0.051607613 1.266
-0.12516765 -0.050467245 1.268
-0.19170246 -0.04654048 1.2640001
-0.18643896 -0.043216161 1.2640001
-0.17618896 -0.043216161 1.2640001
-0.16411059 -0.044989135 1.2640001
-0.15462244 -0.045347713 1.2645714
-0.1444792 -0.044685453 1.2648
-0.13433398 -0.045271073 1.2646667
-0.12450069 -0.044464532 1.2679999
-0.11406177 -0.045035299 1.2675294
-0.10509021 -0.043865975 1.2679999
-0.097882755 -0.041738685 1.2640001
-0.19116358 -0.03512628 1.2653333
-0.18574151 -0.036603756 1.2653333
-0.17514965 -0.037690088 1.2645
-0.16619916 -0.038389586 1.2656
-0.15421759 -0.038832825 1.2656
-0.14383946 -0.037901051 1.2662858
-0.13416296 -0.036590662 1.2648
-0.12505089 -0.036428303 1.2667999
-0.11160598 -0.033793043 1.2679999
-0.10426932 -0.034904655 1.2679999
-0.094829813 -0.034529559 1.2659999
-0.087076373 -0.030754635 1.268
-0.11116134 -0.027790334 1.268
-0.10375133 -0.025527092 1.2661176
-0.095215112 -0.025384411 1.2644
-0.085912451 -0.023973763 1.2645
-0.076459363 -0.021608079 1.2640001
-0.10226843 -0.018897427 1.268
-0.09474311 -0.016436916 1.2640001
-0.085324205 -0.015513495 1.2640001
-0.074310131 -0.015083574 1.2651999
-0.083203644 -0.0067544784 1.2654544
-0.075021431 -0.0057889223 1.2646667
-0.067447662 -0.002497185 1.2665
-0.07169906 0.0022232267 1.268
-0.065046325 0.0055461442 1.2661332
-0.15499248 -0.054457434 1.2742499
-0.14806928 -0.051845189 1.2763335
-0.11717965 -0.041291878 1.273
-0.1662835 -0.039059885 1.273
-0.15349208 -0.036972541 1.2780001
-0.14489605 -0.035385188 1.2746667
-0.12164363 -0.037943885 1.273
-0.11683626 -0.035797741 1.2729999
-0.10825168 -0.037943885 1.273
-0.10825168 -0.025667923 1.273
-0.068343177 -0.01008342 1.2780001
-0.079235762 -0.0011159966 1.273
-0.067024454 -0.0067036506 1.27425
-0.14846876 -0.034867663 1.2830001
-0.15290821 -0.035112254 1.2920001
-0.23582141 0.022968139 1.2970001
-0.23627394 0.026252659 1.302
