# .PCD v0.7 - Point Cloud Data file format
VERSION 0.7
FIELDS x y z
SIZE 4 4 4
TYPE F F F
COUNT 1 1 1
WIDTH 230
HEIGHT 1
VIEWPOINT 0 0 0 1 0 0 0
POINTS 230
DATA ascii
-0.082105532 -0.081677713 0.96550006
-0.075588204 -0.081998885 0.96571434
-0.095177807 -0.073151551 0.96650004
-0.083177902 -0.074996769 0.96686983
-0.074600831 -0.074600816 0.96700042
-0.064549088 -0.073753074 0.96700042
-0.05849383 -0.072905354 0.96700007
-0.099185191 -0.068666667 0.96700007
-0.082472675 -0.066002361 0.96700007
-0.075024694 -0.067183129 0.96700007
-0.06595391 -0.068327576 0.96700013
-0.052994497 -0.091458246 0.97500002
-0.042208545 -0.091275789 0.97762507
-0.038582101 -0.090882279 0.97800004
-0.028293541 -0.098598696 0.97800004
-0.083700374 -0.082728527 0.97000015
-0.070920572 -0.08350601 0.97000009
-0.064477555 -0.083812714 0.97169209
-0.054660097 -0.085411273 0.97424996
-0.044738859 -0.085204668 0.9763639
-0.036339723 -0.083561577 0.97799999
-0.093131617 -0.071952321 0.97066665
-0.087729484 -0.073698439 0.97000021
-0.064202681 -0.077808551 0.97000015
-0.053997174 -0.075199179 0.97196871
-0.044446051 -0.075223655 0.97502804
-0.034773502 -0.075438015 0.97640646
-0.025871841 -0.073753417 0.97673923
-0.094474763 -0.065455541 0.97557706
-0.086600997 -0.063690118 0.97104543
-0.074618764 -0.062520929 0.97164994
-0.064427905 -0.064039789 0.97067714
-0.054459997 -0.064671561 0.97066659
-0.044365555 -0.064843923 0.97327763
-0.035331514 -0.065497421 0.97596312
-0.027237594 -0.068184063 0.97710007
-0.091517858 -0.056090593 0.97766674
-0.084446564 -0.055638015 0.97296143
-0.075066738 -0.054595407 0.9730553
-0.064827479 -0.054590937 0.97297192
-0.054654274 -0.054655597 0.97416675
-0.044806149 -0.054936439 0.97738254
-0.038582101 -0.057444464 0.97799999
-0.082108222 -0.046831407 0.97128576
-0.074947111 -0.045988396 0.97149974
-0.065139562 -0.04629625 0.97304529
-0.055629004 -0.047439937 0.97628576
-0.046298519 -0.04887066 0.97800004
-0.033665664 -0.093483768 0.98210526
-0.025263542 -0.093606241 0.98454547
-0.01797498 -0.092187919 0.98688889
-0.033184964 -0.086039327 0.98142862
-0.024823911 -0.085490562 0.9849999
-0.016921252 -0.084547445 0.98796153
-0.0086702332 -0.080633171 0.98900002
-0.12160002 -0.072613202 0.98899996
-0.11535784 -0.07231614 0.98855567
-0.10729348 -0.070086867 0.98700005
-0.030100349 -0.079980932 0.98100007
-0.024940291 -0.078260913 0.98100007
-0.015281647 -0.074891351 0.98432142
-0.0089592412 -0.07311897 0.98900002
-0.12243659 -0.065118469 0.98875016
-0.11518394 -0.064952962 0.98787999
-0.10553642 -0.064875953 0.98673338
-0.098622367 -0.062444091 0.98250008
-0.031262372 -0.062811852 0.98150009
-0.024506196 -0.064139709 0.98283345
-0.016346265 -0.065517239 0.98521411
-0.1230332 -0.056247253 0.98868442
-0.11512791 -0.055398796 0.9874
-0.10557207 -0.055382665 0.9870832
-0.096328348 -0.054551899 0.98250026
-0.040420469 -0.05332062 0.98100007
-0.034267306 -0.055546056 0.98269576
-0.025582928 -0.056874145 0.98595011
-0.01797644 -0.058342651 0.98677784
-0.1139373 -0.047508761 0.9883334
-0.10553366 -0.047575485 0.98672229
-0.09560401 -0.047596693 0.98480016
-0.051938992 -0.046200335 0.98200005
-0.045811363 -0.046337362 0.98307705
-0.13357009 -0.11169726 0.99800009
-0.12598753 -0.111114 0.99800003
-0.16098404 -0.10148995 0.99800003
-0.15697268 -0.10127854 0.99714291
-0.14086105 -0.10586451 0.99800003
-0.13392003 -0.10487294 0.99799973
-0.12493799 -0.1048453 0.99659991
-0.11859668 -0.10406734 0.99753857
-0.16010913 -0.095365554 0.99800003
-0.15777604 -0.098281927 0.99799997
-0.14086105 -0.09449064 0.99800009
-0.1353199 -0.095106736 0.99717218
-0.12531109 -0.094902381 0.99510747
-0.11790027 -0.095196709 0.99619997
-0.0130448 -0.091313601 0.99200004
-0.14208594 -0.084166661 0.99800003
-0.1351359 -0.085245527 0.99585724
-0.12552652 -0.085426509 0.99433357
-0.11793413 -0.086376548 0.99650002
-0.012189348 -0.086201921 0.9932
-0.0087067252 -0.085324973 0.99312502
-0.15432127 -0.075511746 0.99799979
-0.1452356 -0.075242557 0.99799985
-0.13523181 -0.075031795 0.99520028
-0.12624584 -0.075397715 0.99264306
-0.11531761 -0.076801024 0.99445456
-0.0095661869 -0.070441917 0.99200004
-0.15233214 -0.066201776 0.99800003
-0.14504538 -0.064657658 0.99666679
-0.13511039 -0.064505562 0.99430025
-0.12796442 -0.064213097 0.99217641
-0.011305493 -0.066963308 0.99200004
-0.0085394355 -0.067825243 0.99440002
-0.15259124 -0.055900812 0.99772733
-0.14481683 -0.054960422 0.9951002
-0.13494551 -0.054847818 0.99308014
-0.12709363 -0.053670026 0.99199992
-0.15045002 -0.04957024 0.99200004
-0.14353693 -0.047419183 0.9929474
-0.13469009 -0.045276243 0.99565637
-0.12579344 -0.046673272 0.99592298
-0.1179326 -0.045992896 0.99462497
-0.13240354 -0.038787827 0.99800009
-0.12861226 -0.038496189 0.99800003
-0.15184218 -0.12388673 1.0070001
-0.14448547 -0.12153257 1.0070001
-0.13466419 -0.12304001 1.0062941
-0.12781118 -0.12387616 1.0065385
-0.16155301 -0.11035042 1.0070001
-0.15408264 -0.1139832 1.00664
-0.1455117 -0.11481353 1.0046427
-0.13555463 -0.11579218 1.0018748
-0.12469406 -0.11583315 1.0038844
-0.16127115 -0.10678326 1.0025001
-0.15415362 -0.10533775 1.0033749
-0.14479531 -0.10481393 1.0014614
-0.13923688 -0.10589024 1.001
-0.16233182 -0.092601746 1.003625
-0.15443935 -0.094630614 1.0031817
-0.14576434 -0.094832659 1.0016249
-0.16225533 -0.086422339 1.005875
-0.15494345 -0.085398749 1.0041999
-0.14634533 -0.085607439 1.0012002
-0.1169221 -0.081757233 1.0028001
-0.11495817 -0.07985644 1.001
-0.15497394 -0.06395299 1.0018183
-0.12350431 -0.042080097 1.0023333
-0.1175561 -0.0424738 1.0052001
-0.12444974 -0.038812861 1.0036668
-0.11917845 -0.039726149 1.0070001
-0.14570946 -0.13060974 1.0135001
-0.13874434 -0.13073862 1.0145
-0.15357348 -0.1248461 1.0100001
-0.14546029 -0.1262197 1.0108573
-0.13623795 -0.12781909 1.0107501
-0.12573153 -0.12130436 1.01
-0.16090541 -0.11533351 1.0108572
-0.15731199 -0.11746749 1.0100001
-0.1646906 -0.087657899 1.01
-0.1478323 -0.13349704 1.0220001
-0.1131838 -0.21420737 1.067
-0.1028835 -0.22139235 1.0728
-0.098193675 -0.22282411 1.077
-0.053532552 -0.22355965 1.0760001
-0.048615843 -0.22237702 1.0733334
-0.11291313 -0.21313356 1.0733749
-0.10501558 -0.21539453 1.0752068
-0.096844859 -0.2166196 1.0769999
-0.11537929 -0.2059385 1.0734229
-0.10561216 -0.20461512 1.077
-0.097249508 -0.20299655 1.077
-0.0122687 -0.20504594 1.0764287
-0.0078680823 -0.20173766 1.077
-0.01038587 -0.19921987 1.077
-0.0049906122 -0.19679201 1.077
0.00094416999 -0.19355485 1.077
-0.00283251 -0.18033648 1.077
0.0033045951 -0.18246084 1.077
0.0052861245 -0.17435649 1.0767999
0.01038587 -0.17183894 1.077
0.0056650201 -0.16900642 1.077
0.01038587 -0.16900642 1.077
-0.093733206 -0.22249801 1.08
-0.085004769 -0.22175708 1.0820769
-0.074619964 -0.2241108 1.0858259
-0.065676302 -0.22413304 1.085724
-0.056512035 -0.22243853 1.0827999
-0.044273593 -0.22156891 1.0838
-0.038117465 -0.22012837 1.087
-0.10225441 -0.2111364 1.08
-0.09377712 -0.21276052 1.0816841
-0.085236549 -0.21485087 1.0841249
-0.075375415 -0.21450555 1.0853332
-0.064878769 -0.21421903 1.0866896
-0.054228477 -0.21493675 1.0865713
-0.04484817 -0.21466354 1.0851784
-0.035691813 -0.21406423 1.087
-0.026550887 -0.21161233 1.0850908
-0.01995644 -0.21001777 1.0840001
-0.11172239 -0.2054556 1.08
-0.10468721 -0.20711693 1.0803077
-0.095420405 -0.2072455 1.0822858
-0.084669866 -0.20739564 1.0852
-0.07513918 -0.2073386 1.0848999
-0.064199291 -0.20664424 1.0849999
-0.053624343 -0.20713378 1.087
-0.044740163 -0.20560685 1.0857999
-0.035005379 -0.20518827 1.0868695
-0.024925506 -0.20487706 1.0862758
-0.016130047 -0.20451725 1.0821177
-0.03192338 -0.19725789 1.087
-0.025508516 -0.19501705 1.0842499
-0.015068571 -0.194676 1.0803638
-0.0055155735 -0.19291145 1.0802354
0.00094679999 -0.19220039 1.08
-0.021857053 -0.18911102 1.0840001
-0.01388377 -0.18685502 1.0826249
-0.0048129 -0.1847838 1.08
0.0023669999 -0.1860462 1.08
-0.0028404 -0.17786314 1.08
0.00094679999 -0.1770516 1.08
-0.062111832 -0.21882476 1.09
-0.032489266 -0.21691363 1.09
-0.056378432 -0.20640239 1.09
-0.041089367 -0.20162457 1.09
-0.038222667 -0.20162457 1.09
-0.035355967 -0.19971342 1.09
-0.023889167 -0.19015777 1.09
