# .PCD v0.7 - Point Cloud Data file format
VERSION 0.7
FIELDS x y z
SIZE 4 4 4
TYPE F F F
COUNT 1 1 1
WIDTH 221
HEIGHT 1
VIEWPOINT 0 0 0 1 0 0 0
POINTS 221
DATA ascii
-0.05224758 -0.17001197 0.94600004
-0.060540847 -0.16752398 0.94600004
-0.053801097 -0.16523013 0.94638437
-0.045024723 -0.16381699 0.94674981
-0.035071388 -0.16269623 0.94723076
-0.051249936 -0.15541196 0.94800007
-0.044821873 -0.15439057 0.94683319
-0.035996322 -0.15423061 0.94755554
-0.044878319 -0.14876331 0.94800007
-0.061883349 -0.16320015 0.95712501
-0.057824209 -0.16267356 0.95336366
-0.037239045 -0.16285135 0.95100003
-0.02834614 -0.16090603 0.95100003
-0.061308805 -0.15536813 0.958
-0.056397833 -0.15482104 0.95500004
-0.033920422 -0.15542905 0.95150018
-0.025277082 -0.15525462 0.95364738
-0.01652872 -0.15309927 0.95542127
-0.063403301 -0.14343202 0.95583344
-0.055031016 -0.1452994 0.95503026
-0.045158237 -0.14525479 0.95388258
-0.035097864 -0.14540648 0.95325017
-0.025096482 -0.14556488 0.95427787
-0.015814774 -0.14528786 0.95714796
-0.0086874748 -0.14712659 0.95900005
-0.063077793 -0.13714166 0.95426685
-0.055167753 -0.13541608 0.95350021
-0.045191046 -0.13557491 0.95461136
-0.034990538 -0.13533266 0.9551053
-0.025316844 -0.13522004 0.95627481
-0.017622108 -0.13563868 0.95726317
-0.053863276 -0.12948979 0.95499998
-0.044462491 -0.12704237 0.95550019
-0.036705315 -0.12677024 0.95821726
-0.028584592 -0.12863067 0.95900005
-0.026903147 -0.11433838 0.95900005
-0.076146699 -0.19433115 0.96700007
-0.07595171 -0.18385813 0.96850002
-0.073026463 -0.17257498 0.96700007
-0.066293009 -0.17175145 0.96700013
-0.071927197 -0.1656999 0.96700007
-0.066441335 -0.16467822 0.9650588
-0.086200878 -0.15127409 0.96400005
-0.071040332 -0.1536099 0.96700013
-0.065463103 -0.15505312 0.9641484
-0.059878085 -0.15264696 0.96200007
-0.0016954733 -0.15004939 0.96700007
-0.071791112 -0.14675729 0.96625006
-0.06616547 -0.14693817 0.96284616
-0.011927426 -0.14397247 0.96200001
-0.0051661967 -0.14455859 0.96514845
0.0042386828 -0.14512441 0.96700025
-0.021927185 -0.13071977 0.96200007
-0.013159904 -0.13455597 0.9623
-0.0051970803 -0.13543427 0.96571469
0.001271605 -0.13606173 0.96700007
-0.033549812 -0.12311841 0.96274996
-0.02512341 -0.12467252 0.96282375
-0.015206221 -0.12505122 0.96383357
-0.0053626876 -0.12615016 0.96620041
0.0018650206 -0.12648232 0.96700013
-0.032270096 -0.11809717 0.96360004
-0.024567306 -0.11654764 0.96336371
-0.016884029 -0.11569898 0.96517414
-0.077164203 -0.24606806 0.9780001
-0.09269347 -0.23130326 0.97600001
-0.08489465 -0.23187365 0.97600007
-0.063446119 -0.23063523 0.97800004
-0.10174242 -0.2230617 0.97799999
-0.093740836 -0.22506402 0.97757149
-0.085431449 -0.22630827 0.9763335
-0.075806685 -0.22349043 0.97800016
-0.064817928 -0.22417635 0.97800028
-0.057787407 -0.22206143 0.97800004
-0.10392671 -0.21379383 0.97800022
-0.094142616 -0.21327285 0.97788912
-0.085129023 -0.21294279 0.97735292
-0.075116672 -0.21481001 0.97545177
-0.064866945 -0.21468642 0.9763639
-0.055766344 -0.21457988 0.97758651
-0.11066185 -0.20209864 0.97475004
-0.10444037 -0.2046027 0.97650027
-0.094982766 -0.20451444 0.97608012
-0.085259534 -0.20460512 0.97371882
-0.07485567 -0.20527941 0.97312486
-0.065233901 -0.20512344 0.97611773
-0.057895623 -0.20563707 0.97772729
-0.11340252 -0.19435555 0.97314793
-0.10426722 -0.19486131 0.97488892
-0.094864748 -0.19485673 0.97486687
-0.085171506 -0.19457315 0.97202766
-0.073746584 -0.1959134 0.9708823
-0.066055961 -0.19517571 0.97251976
-0.058977749 -0.19915675 0.97500002
-0.11362869 -0.18528856 0.97212481
-0.10507842 -0.18496777 0.97400004
-0.095288806 -0.18478765 0.97196525
-0.084997721 -0.18478756 0.97048372
-0.066122472 -0.18675114 0.97162515
-0.11165928 -0.17622671 0.97426683
-0.10429174 -0.17546217 0.97634631
-0.09511023 -0.17516944 0.97323668
-0.085465029 -0.1751073 0.9729498
-0.075837255 -0.17648977 0.97000003
-0.067048147 -0.17511012 0.97000021
-0.11026275 -0.16667625 0.97500002
-0.1031714 -0.16718911 0.97799999
-0.093336992 -0.16614994 0.9778235
-0.084934734 -0.16525227 0.97466677
-0.076504976 -0.16459824 0.97195649
-0.068879701 -0.16922297 0.97000003
-0.092123643 -0.1560984 0.97300005
-0.084766917 -0.15604354 0.97265506
-0.076359339 -0.15533648 0.97192287
-0.077159822 -0.14877252 0.97250003
-0.00085036666 -0.1454127 0.97000003
0.0068029328 -0.14201124 0.97000015
0.013496942 -0.14217217 0.97208333
-0.00085036666 -0.13690904 0.97000003
0.0055960645 -0.13499267 0.97190607
0.014518418 -0.13493927 0.97420019
-0.0036849221 -0.12188589 0.97000009
0.0064066797 -0.12455834 0.97113037
0.015078434 -0.12511885 0.97353339
-0.012374353 -0.11464468 0.97092313
-0.0050290907 -0.11575148 0.9735527
0.0045562871 -0.11573387 0.97299999
0.013620552 -0.11802834 0.97091675
-0.070086867 -0.25179356 0.98700005
-0.073262952 -0.24419314 0.98427296
-0.065719664 -0.24397831 0.98258835
-0.057742648 -0.24172692 0.98728573
-0.09804114 -0.23134269 0.98100007
-0.081700951 -0.23306271 0.98100007
-0.075226545 -0.2355275 0.98350006
-0.065776519 -0.23506482 0.9821741
-0.055494633 -0.23574282 0.98631817
-0.049320389 -0.23102708 0.98700005
-0.10635456 -0.2215959 0.98100013
-0.096254975 -0.22459491 0.98100001
-0.085140988 -0.22252761 0.98100001
-0.075336881 -0.22807464 0.98100007
-0.067252785 -0.22893468 0.98100007
-0.055307362 -0.22591041 0.98200017
-0.048597142 -0.22614317 0.98550004
-0.10664123 -0.21758254 0.98100001
-0.095078878 -0.21815586 0.98100007
-0.084949881 -0.21853808 0.98100007
-0.1118013 -0.17458203 0.98100007
-0.1067368 -0.17286199 0.98100007
-0.11094129 -0.16942197 0.98100007
-0.10447346 -0.16632533 0.98352176
-0.096514478 -0.1632594 0.98406255
-0.00086000998 -0.11094129 0.98100007
-0.051309545 -0.23567605 0.99200004
-0.10031258 -0.16137241 0.99500006
-0.097549766 -0.16112915 0.99350005
-0.051775057 -0.23956932 1.001
-0.0017160125 -0.29423013 1.054
0.0037938233 -0.29370475 1.0524446
0.011428519 -0.29374385 1.057
-0.0018480134 -0.28921407 1.054
0.0027673442 -0.28848234 1.0513334
0.026872464 -0.28818399 1.057
0.08988376 -0.20663998 1.057
0.087412722 -0.19304931 1.057
0.087103844 -0.18996051 1.057
0.015815787 -0.29344806 1.0610589
0.024772896 -0.29330254 1.0605295
0.034098316 -0.29230529 1.0607501
0.017706037 -0.28744778 1.063
0.025129549 -0.28517741 1.0617307
0.034474038 -0.28510582 1.0627998
0.044269092 -0.28456622 1.0638
0.05247274 -0.28160974 1.0625001
0.025956744 -0.2775569 1.0608182
0.034723282 -0.27523363 1.0629998
0.044906404 -0.27493158 1.0650606
0.055243019 -0.27510414 1.0667036
0.062842093 -0.27237245 1.0670002
0.036343969 -0.26931813 1.0630001
0.046589248 -0.26656285 1.0655001
0.055085931 -0.26515457 1.0649998
0.064634003 -0.2647422 1.0657824
0.071610324 -0.26305619 1.067
0.049390525 -0.25999916 1.0630001
0.055490211 -0.25567853 1.0629998
0.064307757 -0.25538898 1.0653702
0.074435316 -0.25496024 1.0661428
0.057259876 -0.24674551 1.0630001
0.064420037 -0.2446866 1.063857
0.074410699 -0.24505636 1.0643749
0.081384853 -0.24388631 1.0635716
0.066805981 -0.23637559 1.0663847
0.07496047 -0.23466633 1.0636363
0.082532167 -0.23454617 1.0633076
0.068284445 -0.2282384 1.067
0.074659273 -0.22492422 1.0645999
0.084139168 -0.22452967 1.0635713
0.074876755 -0.21524778 1.0646772
0.084959194 -0.21508273 1.0631537
0.090734124 -0.21981978 1.067
0.076812908 -0.20553805 1.0654761
0.084708519 -0.2049353 1.0634136
0.090351462 -0.20305529 1.0625
0.078183293 -0.19550632 1.0651819
0.083988652 -0.19507731 1.06215
0.090734124 -0.19924091 1.067
0.079197489 -0.18676887 1.067
0.083458722 -0.18512712 1.063421
0.0846413 -0.17951767 1.061
0.089113168 -0.225128 1.0700001
0.090989232 -0.22418997 1.0700001
0.074104629 -0.2026152 1.0700001
0.075515687 -0.1956909 1.0710001
0.078380354 -0.18539111 1.07075
0.082546934 -0.17916436 1.0700001
-0.010549807 -0.17359227 1.0940001
-0.0063283057 -0.17202497 1.0937999
0.0080583207 -0.3132672 1.149
0.012577975 -0.3134982 1.148
