# .PCD v0.7 - Point Cloud Data file format
VERSION 0.7
FIELDS x y z
SIZE 4 4 4
TYPE F F F
COUNT 1 1 1
WIDTH 226
HEIGHT 1
VIEWPOINT 0 0 0 1 0 0 0
POINTS 226
DATA ascii
-0.20457104 0.0098265568 1.0190001
-0.2124538 0.016068643 1.01825
-0.20457105 0.013399851 1.0190001
-0.21322706 -0.022169847 1.028
-0.20546271 -0.023068016 1.0251427
-0.19464982 -0.020915514 1.0245715
-0.21364626 -0.014977491 1.0262353
-0.20527011 -0.015239621 1.0224799
-0.1953178 -0.015231205 1.0219998
-0.18481945 -0.0152533 1.0233998
-0.17544906 -0.013795812 1.0263332
-0.16852689 -0.011715773 1.028
-0.21331617 -0.0064114467 1.0266874
-0.20514056 -0.0051748096 1.0249999
-0.19504352 -0.0056039821 1.0234998
-0.18480794 -0.0053790812 1.0233331
-0.17477882 -0.0056387191 1.0252726
-0.16579925 -0.0044404734 1.0274642
-0.21278502 0.0058563524 1.02775
-0.20508675 0.0050330488 1.0248181
-0.19511452 0.0056062825 1.0238749
-0.18480603 0.0053814184 1.0233333
-0.17508055 0.0053064069 1.0251933
-0.16609924 0.0064293444 1.0262221
-0.1584333 0.0084714051 1.028
-0.2124812 0.013247796 1.0226668
-0.20528284 0.01548536 1.0225453
-0.19541308 0.01524006 1.0224998
-0.18495983 0.015266976 1.0241998
-0.17535532 0.014754682 1.0266955
-0.16546789 0.014450808 1.0271428
-0.15604855 0.016984407 1.028
-0.14870019 0.018925481 1.028
-0.19281669 0.020627089 1.0230001
-0.18407625 0.022997549 1.0264999
-0.17730543 0.025769459 1.0266362
-0.21529548 -0.024042234 1.031
-0.18890326 -0.020788396 1.031
-0.22251679 -0.014946213 1.0360001
-0.21854933 -0.015365337 1.031
-0.17082639 -0.014461493 1.031
-0.16556768 -0.013228979 1.031
-0.15591417 -0.01201384 1.0314287
-0.14650679 -0.01000978 1.0380001
-0.23350087 -0.0030939321 1.0380001
-0.22273834 -0.0045354688 1.0350771
-0.21782625 -0.0046698572 1.031
-0.16323411 -0.0092192022 1.031
-0.15560935 -0.0054297834 1.0320001
-0.14592575 -0.00447889 1.0362145
-0.13740698 -0.0018199602 1.0380001
-0.23113492 0.00090997998 1.0380001
-0.2229505 0.0045306133 1.0345001
-0.21768814 0.0053717494 1.031353
-0.16382161 0.0022596084 1.031
-0.15493542 0.0049280832 1.0311936
-0.1453878 0.0056535718 1.0346472
-0.17371868 0.018619174 1.031
-0.16480076 0.017775586 1.031
-0.15466355 0.014089322 1.031
-0.14465827 0.015262254 1.0324485
-0.13762239 0.014263617 1.0357144
-0.17362012 0.024403773 1.031
-0.16511226 0.025586789 1.0322728
-0.15505268 0.025237696 1.0332857
-0.14583226 0.023185203 1.0359474
-0.13844144 0.02150931 1.0366668
-0.15075335 0.031242646 1.0380001
-0.14468682 0.030939316 1.0380001
-0.13831696 0.03002934 1.0380001
-0.23864621 -0.042222016 1.0470001
-0.21874236 -0.0411858 1.044
-0.23864619 -0.038550541 1.0470001
-0.25057852 -0.0275361 1.0470001
-0.24874277 -0.0275361 1.0470001
-0.2351916 -0.023061069 1.0466
-0.22546652 -0.023163915 1.0448571
-0.2347651 -0.015275367 1.0453752
-0.2279563 -0.015173171 1.0426
-0.23402669 -0.0059818332 1.043077
-0.22828451 -0.0045672581 1.0416
-0.14145455 -0.0045630499 1.041
-0.13962933 -0.0045630499 1.041
-0.23089033 0.0027378299 1.041
-0.2281525 0.0027378302 1.041
-0.14145455 0.00182522 1.041
-0.13578691 0.0047741313 1.0426669
-0.12941967 0.0082608303 1.0470001
-0.13298538 0.012788 1.0420715
-0.12904884 0.01189812 1.044
-0.14318702 0.02697782 1.0415454
-0.1385449 0.026491113 1.0419999
-0.23721898 -0.060231384 1.057
-0.21364123 -0.061672822 1.057
-0.24150896 -0.053671289 1.0555
-0.23540302 -0.054164808 1.0533915
-0.22548158 -0.053641964 1.0569999
-0.21655674 -0.054903008 1.0560999
-0.27258196 -0.041580301 1.054
-0.25111854 -0.042625286 1.057
-0.24479945 -0.044777915 1.0551176
-0.23427413 -0.045604974 1.0512799
-0.22526078 -0.04498202 1.0539601
-0.21745072 -0.048493985 1.057
-0.27224144 -0.036126267 1.0566667
-0.26501808 -0.033094168 1.057
-0.25463787 -0.03451502 1.05545
-0.24500401 -0.034614403 1.0528929
-0.23434354 -0.034574345 1.0502757
-0.22642936 -0.035609055 1.0508696
-0.27111924 -0.027760964 1.0555
-0.26523033 -0.024794471 1.0548573
-0.25574648 -0.024613148 1.0528334
-0.24524431 -0.024970828 1.0516665
-0.23451144 -0.026986092 1.0503078
-0.22782376 -0.027154749 1.0500001
-0.26223817 -0.017269136 1.057
-0.25419831 -0.016350795 1.0558573
-0.2447899 -0.014956636 1.05336
-0.2384095 -0.011046 1.0500001
-0.24548537 -0.0070919408 1.0553335
-0.23291545 -0.090734124 1.067
-0.24227248 -0.083365493 1.0662729
-0.23475815 -0.084899038 1.0661666
-0.22917382 -0.085121699 1.067
-0.21140115 -0.081380092 1.067
-0.24262694 -0.07473544 1.0626667
-0.2348838 -0.074861914 1.0680454
-0.22572482 -0.075400576 1.0685
-0.21593426 -0.074112728 1.0669999
-0.20859495 -0.075767666 1.067
-0.2630184 -0.063352317 1.0670002
-0.25493708 -0.063136257 1.0643333
-0.24502935 -0.065320782 1.0613998
-0.23494993 -0.065002099 1.0630001
-0.22469798 -0.064386182 1.0631851
-0.2160785 -0.06604024 1.0630715
-0.26445916 -0.055086222 1.0666363
-0.25488269 -0.05489504 1.0640768
-0.24607956 -0.055345874 1.0615882
-0.23138739 -0.058543801 1.0600001
-0.22501528 -0.057481784 1.0600001
-0.27079928 -0.045761272 1.0651667
-0.26552388 -0.044839356 1.0646665
-0.25582486 -0.045842886 1.0614783
-0.2481142 -0.047764309 1.0600001
-0.27041659 -0.0390292 1.0600001
-0.26561147 -0.03589021 1.0606002
-0.25771663 -0.038719442 1.0600001
-0.26669952 -0.028807266 1.0600001
-0.26112393 -0.012080466 1.0600001
-0.25661719 -0.011264097 1.0610001
-0.24904346 -0.010221933 1.0600001
-0.25422081 -0.0075668856 1.0600001
-0.24687517 -0.0083633997 1.0600001
-0.23169424 -0.089113168 1.0700001
-0.22503312 -0.084782012 1.070913
-0.21707276 -0.083310284 1.0707501
-0.21306507 -0.07665047 1.0706668
-0.20875157 -0.075421967 1.0710001
-0.26358736 -0.060972165 1.0700001
-0.23638439 -0.068476431 1.0700001
-0.21164925 -0.068668425 1.0730001
-0.22366571 -0.051011477 1.1190001
-0.23231523 -0.040728472 1.115
-0.22686155 -0.043021832 1.1181111
-0.065726332 -0.040220588 1.1190001
-0.23247448 -0.034191929 1.1142001
-0.21836714 -0.030220453 1.1120001
-0.2214454 -0.062518023 1.126
-0.21440698 -0.062305953 1.1255716
-0.22290072 -0.054232404 1.1247647
-0.21571621 -0.054640364 1.1260002
-0.065922961 -0.044804238 1.1257001
-0.14665405 -0.13069171 1.138
-0.075821146 -0.092781141 1.138
-0.083735809 -0.083469763 1.1380002
-0.075408943 -0.084385648 1.1378002
-0.06883762 -0.080809377 1.138
-0.082260497 -0.075367667 1.1380001
-0.074803583 -0.0748033 1.1376803
-0.068278305 -0.072267137 1.1370001
-0.2110049 -0.060428634 1.13
-0.080809377 -0.066842325 1.138
-0.074616745 -0.064665794 1.1348003
-0.065817825 -0.064458162 1.1348423
-0.074289031 -0.054599103 1.1323336
-0.066241808 -0.05446139 1.132
-0.073144279 -0.045788761 1.1305333
-0.067363068 -0.048541032 1.13
-0.16389826 -0.14103165 1.1442
-0.1554791 -0.14143455 1.1442001
-0.14804095 -0.14103901 1.141
-0.16528267 -0.13636906 1.1442943
-0.15539588 -0.13565864 1.1448337
-0.14502127 -0.13544796 1.1415219
-0.13524793 -0.13387914 1.141
-0.12593642 -0.13323617 1.1427143
-0.11730355 -0.13134249 1.1436667
-0.14360392 -0.12806368 1.1435001
-0.13475665 -0.12604581 1.1420003
-0.12517373 -0.12517597 1.1422802
-0.11564085 -0.12569831 1.1470802
-0.106395 -0.12427441 1.149
-0.099721707 -0.12188209 1.149
-0.12392998 -0.11754736 1.1442729
-0.1155983 -0.11633184 1.1484547
-0.1056507 -0.11571129 1.1477202
-0.095869124 -0.11480429 1.1453813
-0.088873245 -0.11234862 1.1476668
-0.11180919 -0.10778003 1.149
-0.10485196 -0.1062569 1.1456003
-0.095624238 -0.10568956 1.1482002
-0.08626312 -0.10525205 1.1486192
-0.079575911 -0.10173629 1.149
-0.10173629 -0.099721707 1.149
-0.095132187 -0.09604568 1.1477275
-0.08526364 -0.095295027 1.1442003
-0.077256687 -0.094612338 1.142
-0.092013478 -0.088667534 1.1450001
-0.086460471 -0.087794177 1.1423334
-0.079021856 -0.089024626 1.141
-0.085023515 -0.079021856 1.141
-0.065149233 -0.075175047 1.1432858
-0.1202848 -0.11219843 1.153
-0.11502866 -0.11098547 1.153
