# .PCD v0.7 - Point Cloud Data file format
VERSION 0.7
FIELDS x y z
SIZE 4 4 4
TYPE F F F
COUNT 1 1 1
WIDTH 232
HEIGHT 1
VIEWPOINT 0 0 0 1 0 0 0
POINTS 232
DATA ascii
-0.062914222 -0.14229272 0.99800009
-0.056431904 -0.14363159 0.99800009
-0.022572765 -0.141211 0.99800003
-0.01837318 -0.14086105 0.99800003
-0.062993757 -0.13473667 0.99799985
-0.055657946 -0.13460207 0.99799979
-0.02362266 -0.13911122 0.99800003
-0.062118843 -0.12861226 0.99799997
-0.05581947 -0.12826231 0.99800003
-0.05102288 -0.15181501 1.001
-0.044572949 -0.15422408 1.0052499
-0.038923599 -0.15497211 1.0070001
-0.015007657 -0.15095937 1.0070001
-0.063183121 -0.14479464 1.001
-0.05306828 -0.14553362 1.001
-0.044826664 -0.14503914 1.0026799
-0.035685591 -0.14396876 1.0060769
-0.024762744 -0.14563471 1.0041304
-0.016608568 -0.14514299 1.0042001
-0.072062656 -0.13420561 1.0055001
-0.068517633 -0.13527493 1.002
-0.05072201 -0.13549268 1.0010002
-0.04484421 -0.13542265 1.0030998
-0.035305548 -0.13537382 1.0068126
-0.025600217 -0.13611361 1.0042306
-0.018428409 -0.13952939 1.001
-0.072095603 -0.12624088 1.0070001
-0.064518578 -0.12463765 1.0019999
-0.054177601 -0.12401922 1.0014837
-0.044922329 -0.12508421 1.0047998
-0.036312759 -0.12469641 1.0066667
-0.02913251 -0.12094405 1.0070001
-0.06246566 -0.11628246 1.0064
-0.05460012 -0.11829492 1.0045002
-0.044702925 -0.11736255 1.0055
-0.036061801 -0.11760091 1.0066
-0.02913251 -0.11917845 1.0070001
-0.031970277 -0.17139623 1.013
-0.02568418 -0.17187981 1.0168182
-0.11166541 -0.16169152 1.0190001
-0.043386232 -0.16026343 1.01
-0.034744568 -0.16426352 1.0109313
-0.025096416 -0.16470341 1.013469
-0.017063942 -0.16466655 1.0168571
-0.00089332333 -0.16526482 1.0190001
-0.10987877 -0.15097164 1.0190001
-0.033656199 -0.15499762 1.0103002
-0.024814751 -0.1551062 1.0110003
-0.015093789 -0.15556282 1.0130002
-0.0068210089 -0.15389852 1.0152857
-0.14263396 -0.1456117 1.0190001
-0.12131331 -0.14168108 1.0190001
-0.11506005 -0.14302103 1.0190003
-0.10809211 -0.14311039 1.0190001
-0.034089182 -0.14853144 1.0100001
-0.028333865 -0.14963824 1.01
-0.013336729 -0.14554796 1.014091
-0.0075843721 -0.14790364 1.0178751
-0.12131331 -0.1370358 1.0190001
-0.11517254 -0.13481177 1.0184003
-0.10543422 -0.13454627 1.0188893
-0.096617252 -0.13273259 1.0148001
-0.086142145 -0.1305453 1.013
-0.076494128 -0.13408354 1.0106668
-0.031875599 -0.13015869 1.01
-0.023156399 -0.1321124 1.0104287
-0.01681328 -0.1345789 1.0158235
-0.12327863 -0.12149198 1.0190001
-0.11523871 -0.12506528 1.0190005
-0.10592934 -0.12671085 1.0190002
-0.094262712 -0.12518236 1.0175558
-0.085501492 -0.12626921 1.0169548
-0.075612821 -0.12541586 1.0146366
-0.069063798 -0.12396067 1.0100001
-0.032508053 -0.12686995 1.0100001
-0.025115727 -0.12551394 1.0102402
-0.015763124 -0.12810314 1.013
-0.12349131 -0.11540886 1.0190003
-0.11522556 -0.11522494 1.0188804
-0.10546923 -0.11467613 1.0188849
-0.097372249 -0.11479204 1.0190001
-0.07193353 -0.11510789 1.013
-0.066718809 -0.11511192 1.0104738
-0.054070935 -0.11744846 1.0111251
-0.045157097 -0.11457507 1.01
-0.13131852 -0.10451883 1.0190001
-0.123151 -0.10681595 1.0190001
-0.11510127 -0.1060993 1.0190004
-0.10694356 -0.10758165 1.0190001
-0.093423568 -0.10688121 1.0188
-0.087545313 -0.10329931 1.0172499
-0.07295946 -0.10470376 1.0128752
-0.066704541 -0.10494386 1.0145001
-0.11166541 -0.098265566 1.0190001
-0.10971703 -0.098119602 1.0175
-0.095531419 -0.099100508 1.0184
-0.089960024 -0.098866962 1.016
-0.12589768 -0.17198031 1.0257499
-0.11878789 -0.17188057 1.0265
-0.021886859 -0.1747109 1.0220002
-0.015414014 -0.17419745 1.023
-0.0074208737 -0.17249238 1.026125
-0.12362776 -0.16591296 1.0263499
-0.11658184 -0.16414291 1.0236363
-0.012797501 -0.16621223 1.0228184
-0.005890049 -0.16473792 1.0236874
0.00089595333 -0.16216755 1.0220001
-0.14354193 -0.15385395 1.0225626
-0.13568123 -0.15188763 1.0267999
-0.12431239 -0.15456107 1.0267999
-0.11507012 -0.15543984 1.0240687
-0.10821778 -0.15455692 1.0230001
-0.0017926956 -0.15477489 1.0229001
0.0016166609 -0.15522338 1.0247
-0.15073654 -0.14354263 1.0255001
-0.14456847 -0.14508043 1.0219998
-0.13499138 -0.1445595 1.0227777
-0.12561536 -0.14497994 1.0225999
-0.11498069 -0.14828028 1.0220002
-0.10641935 -0.14444757 1.0220001
-0.012562196 -0.14266391 1.0235001
-0.0048869289 -0.14435667 1.0246664
0.00090121332 -0.14689778 1.028
-0.15155785 -0.13895138 1.0270001
-0.1443722 -0.13530411 1.0258076
-0.13565171 -0.13487962 1.0232855
-0.12618607 -0.13485889 1.0219998
-0.1075144 -0.13887277 1.0220001
-0.012484124 -0.13612841 1.0253334
-0.0070579969 -0.13667189 1.0267367
-0.1429517 -0.12562999 1.0275384
-0.13528378 -0.12511253 1.0234442
-0.12594545 -0.12645742 1.0219998
-0.10514276 -0.12358885 1.0220002
-0.098554872 -0.12274561 1.0220002
-0.079739846 -0.12364156 1.0220001
-0.1414005 -0.11718784 1.0230001
-0.13516539 -0.11483651 1.0219998
-0.12909873 -0.11427478 1.0220002
-0.10527451 -0.11916179 1.0220001
-0.095087908 -0.11542217 1.022
-0.088699378 -0.11378607 1.0220001
-0.13313867 -0.10769359 1.0220001
-0.12641902 -0.10428896 1.0220001
-0.11647393 -0.10124273 1.0220001
-0.10488448 -0.10447509 1.0233636
-0.096432872 -0.10492085 1.0220001
-0.1209537 -0.099450819 1.0220001
-0.11647393 -0.098554872 1.0220002
-0.10596428 -0.099150822 1.0226002
-0.14143562 -0.17280878 1.0351429
-0.13488443 -0.17290132 1.0326002
-0.12021116 -0.17444175 1.031
-0.14265808 -0.16600211 1.0355716
-0.13532719 -0.16529411 1.0360001
-0.12856412 -0.16454604 1.0313001
-0.14029953 -0.15749887 1.0325
-0.13426593 -0.15668058 1.032154
-0.12821662 -0.15688138 1.031
0.0053524487 -0.15333395 1.0327274
-0.15455721 -0.14009571 1.031
-0.00090384332 -0.14009571 1.031
0.0027115301 -0.14502577 1.031
-0.15212721 -0.13539952 1.0313751
-0.1482303 -0.13286497 1.031
-0.0018076866 -0.13738419 1.031
-0.14291745 -0.24396397 1.0744544
-0.13496475 -0.24275041 1.0766
-0.12935129 -0.2454842 1.077
-0.13075221 -0.23986915 1.0730001
-0.135317 -0.25157526 1.087
-0.13519351 -0.24670351 1.0805714
-0.083088711 -0.28418201 1.0944
-0.079603083 -0.28484479 1.0940001
-0.12405973 -0.26062161 1.097
-0.13310705 -0.25483948 1.0945715
-0.12213632 -0.25773647 1.097
-0.11732781 -0.2586982 1.097
-0.11364756 -0.28071919 1.108
-0.092331231 -0.28628638 1.1040001
-0.085081384 -0.28509885 1.1054
-0.12262344 -0.27359438 1.1013635
-0.1152513 -0.27457026 1.1056361
-0.1092765 -0.27246276 1.108
-0.13094683 -0.26221538 1.1010001
-0.12411842 -0.2652941 1.1015713
-0.11546975 -0.26571584 1.1043634
-0.10833614 -0.26593897 1.1066667
-0.086215787 -0.26639709 1.105
-0.012627507 -0.26129225 1.108
-0.13107553 -0.25809714 1.1010001
-0.12699404 -0.25743529 1.101
-0.074480504 -0.29133779 1.1142499
-0.066252112 -0.29117584 1.1155
-0.059840389 -0.29135403 1.1190001
-0.11079577 -0.28357491 1.1135001
-0.10410108 -0.28401491 1.1147618
-0.095059283 -0.2838442 1.1147271
-0.084845908 -0.28302664 1.1139411
-0.075517364 -0.28502122 1.1155554
-0.066290379 -0.28605205 1.1186
-0.054935437 -0.28507569 1.1190002
-0.0454049 -0.28393236 1.1151109
-0.036408987 -0.28185841 1.1125001
-0.11080834 -0.27848312 1.1120001
-0.10434376 -0.27494621 1.1141249
-0.095029928 -0.27530313 1.1175599
-0.085155219 -0.27525824 1.1164615
-0.07529971 -0.27480274 1.1155199
-0.065553553 -0.27442884 1.1146666
-0.055559084 -0.27516809 1.1163844
-0.044871066 -0.27471504 1.1151723
-0.034762379 -0.27524567 1.1138999
-0.024963867 -0.27376226 1.1154736
-0.017594699 -0.27076289 1.115
-0.1023596 -0.26808468 1.1120001
-0.081999451 -0.2684463 1.1135001
-0.07522466 -0.26866326 1.1144001
-0.065541178 -0.26900077 1.1158001
-0.055716552 -0.26783043 1.1149999
-0.044415899 -0.26656294 1.1165237
-0.034239799 -0.26509455 1.11584
-0.024409832 -0.26458293 1.1136799
-0.014879281 -0.26413193 1.1121304
-0.0082862535 -0.26223555 1.1120001
-0.032810301 -0.25719297 1.1138
-0.024396233 -0.25666383 1.1132001
-0.014934601 -0.25566277 1.1145239
-0.0087736798 -0.25833613 1.1120001
-0.058085304 -0.29141101 1.123
-0.062220186 -0.28412575 1.123
-0.054684319 -0.28595152 1.123
