# .PCD v0.7 - Point Cloud Data file format
VERSION 0.7
FIELDS x y z
SIZE 4 4 4
TYPE F F F
COUNT 1 1 1
WIDTH 230
HEIGHT 1
VIEWPOINT 0 0 0 1 0 0 0
POINTS 230
DATA ascii
-0.16056132 -0.0028823044 0.96700013
-0.15516911 -0.0037760427 0.9667275
-0.14709391 -0.0020755483 0.96481824
-0.16114703 0.0051634866 0.96700007
-0.15468982 0.0052571576 0.96518224
-0.14584282 0.0046194107 0.96632308
-0.13818108 0.00084773666 0.96700007
-0.15339221 0.011864894 0.96670008
-0.14835392 0.011020577 0.96700007
-0.17084129 -0.00142546 0.97600001
-0.16548355 -0.0029840271 0.97216672
-0.17204146 0.0051366817 0.97633332
-0.16605118 0.0051103821 0.9713335
-0.14094828 0.0065903417 0.97000015
-0.13447137 0.0053637037 0.97229397
-0.12579314 0.0062557883 0.97508013
-0.11780401 0.0087452764 0.97800004
-0.17147601 0.01114594 0.97800004
-0.16493651 0.014462809 0.97649997
-0.15554611 0.016665198 0.97280765
-0.14461607 0.015447768 0.97119981
-0.13482593 0.015360907 0.97338879
-0.12483308 0.015393389 0.97533345
-0.11766532 0.014801816 0.97779995
-0.17282178 0.026441861 0.9767648
-0.16492142 0.02577935 0.97472423
-0.15502118 0.025547892 0.97158337
-0.14484543 0.025562216 0.97191644
-0.13484839 0.025604514 0.97355533
-0.12623928 0.024376752 0.97718185
-0.11599128 0.026088849 0.9780001
-0.16465919 0.03185061 0.9731667
-0.15419485 0.033326223 0.97176474
-0.1448901 0.034635246 0.97411114
-0.1355585 0.034756526 0.97570384
-0.12860699 0.031294368 0.97800004
-0.11331705 0.031865954 0.97799999
-0.13718081 0.04029686 0.97800004
-0.1817859 -0.011849319 0.98900002
-0.18341471 -0.0046609025 0.98842865
-0.17735957 -0.0031140074 0.9859001
-0.18416093 0.0060554529 0.98736
-0.17757036 0.0051690456 0.98325008
-0.11305242 0.0082401661 0.98228568
-0.10575385 0.0080313301 0.98650014
-0.098790258 0.0086662881 0.98850006
-0.19064344 0.01639016 0.98400003
-0.18443348 0.015395747 0.98513776
-0.17513123 0.015755061 0.9814142
-0.16641194 0.016913529 0.98100001
-0.11377427 0.015834302 0.98100001
-0.10526914 0.015670778 0.98664701
-0.095826596 0.016060334 0.98764509
-0.088725388 0.019363523 0.98900002
-0.18029176 0.021566 0.98400003
-0.17536247 0.022161694 0.98175007
-0.16598193 0.02150025 0.98100007
-0.12233642 0.026230305 0.98100001
-0.11515104 0.024782743 0.98128581
-0.10498521 0.024876973 0.98611104
-0.096342079 0.025060834 0.98858356
-0.087569356 0.02861177 0.98900002
-0.14792171 0.03870045 0.98100007
-0.13215488 0.038127109 0.98100013
-0.12488519 0.034603447 0.98244834
-0.11603183 0.035759419 0.98230428
-0.10513383 0.034642354 0.98380649
-0.09520971 0.034620192 0.9873333
-0.08699324 0.035718579 0.98868442
-0.072787002 0.037605494 0.98839998
-0.14118542 0.041119173 0.98400003
-0.13367738 0.042033445 0.98250008
-0.12476719 0.042982507 0.98368424
-0.11534189 0.043612283 0.9858461
-0.10556623 0.044925597 0.98819995
-0.095931001 0.04380602 0.98715401
-0.086840846 0.040681425 0.98733336
-0.074489489 0.041575041 0.98800004
-0.19160601 -0.041120928 0.99800003
-0.20560463 -0.032371793 0.99799997
-0.19350158 -0.034547571 0.99762505
-0.18745016 -0.03280925 0.99800009
-0.1740036 -0.032353383 0.9974001
-0.20535465 -0.023747649 0.99800009
-0.19464886 -0.024222044 0.99692863
-0.18527994 -0.024474263 0.99691677
-0.17602606 -0.025560634 0.99687487
-0.21295391 -0.014640217 0.99800009
-0.20491879 -0.015048957 0.99655545
-0.19520751 -0.014653548 0.99564296
-0.18575551 -0.01534422 0.99395669
-0.21329071 -0.0048514325 0.99786353
-0.20506829 -0.0052344026 0.99540031
-0.19531149 -0.005231583 0.99458355
-0.18794174 -0.0064740861 0.99200004
-0.21435378 0.0021872832 0.99800003
-0.20327152 0.00087491336 0.99799997
-0.19431084 0.0021463188 0.99718189
-0.18805782 0.0034822298 0.99312496
-0.091603488 0.025509832 0.99200004
-0.08830934 0.024745589 0.99199998
-0.078268796 0.039134398 0.99200004
-0.084156089 0.042671595 0.99336362
-0.078388467 0.041806478 0.99350005
-0.2112416 -0.060731959 1.0040001
-0.21265174 -0.054993458 1.0070001
-0.20834158 -0.054733809 1.0070001
-0.18274029 -0.053851005 1.0070001
-0.22193675 -0.043610487 1.0070001
-0.21509843 -0.04487082 1.0062759
-0.20694014 -0.044518474 1.0062001
-0.19472814 -0.043051902 1.0059091
-0.18514149 -0.042704586 1.0067693
-0.17662859 -0.044072255 1.0070001
-0.22368181 -0.035054926 1.0050434
-0.21509336 -0.035393365 1.0029687
-0.20497616 -0.035407454 1.0027272
-0.19588843 -0.034941301 1.0014001
-0.18441463 -0.03599564 1.0029998
-0.17666674 -0.036626026 1.0026001
-0.22344923 -0.024836196 1.0039998
-0.21506357 -0.024578843 1.0012999
-0.20494626 -0.025049873 1.0009999
-0.19920233 -0.028081387 1.001
-0.22262806 -0.015036173 1.0018824
-0.21710423 -0.015269254 1.0010002
-0.22143345 -0.009067948 1.001
-0.21763074 -0.0078978902 1.001
-0.21296713 0.0046056458 1.0031177
-0.20579261 0.003913343 1.0036666
-0.2017124 -0.07200186 1.0190001
-0.19504225 -0.072954729 1.0190003
-0.1847903 -0.072359197 1.0190001
-0.17583211 -0.072107121 1.0188
-0.20381269 -0.06426663 1.0152501
-0.19504839 -0.065204643 1.0178626
-0.18475096 -0.064820439 1.015889
-0.1746071 -0.065035515 1.0162003
-0.16565731 -0.064723752 1.0167145
-0.21634088 -0.051059987 1.01
-0.20459338 -0.055245861 1.0119092
-0.19507425 -0.054852486 1.0135458
-0.18506283 -0.055290587 1.0110347
-0.17476641 -0.055007953 1.0119737
-0.16532585 -0.057424739 1.0181667
-0.15990488 -0.058066014 1.0190001
-0.2031184 -0.04562933 1.0100001
-0.19515735 -0.047101937 1.0113126
-0.18530171 -0.046958596 1.010643
-0.1753158 -0.047636319 1.0100001
-0.16911776 -0.046927966 1.01
-0.21161857 0.0097397668 1.01
-0.2098477 0.0097397668 1.01
-0.19979759 -0.076156035 1.0220001
-0.18322244 -0.07526008 1.0220001
-0.18053284 -0.040222343 1.067
-0.17492042 -0.04209315 1.067
-0.18053286 -0.036480729 1.067
-0.17772664 -0.034609921 1.0670002
-0.17457841 -0.04137769 1.0700001
-0.16790736 -0.043853741 1.0708572
-0.021715909 -0.040599309 1.077
-0.16822006 -0.038531255 1.072
-0.031157607 -0.033045951 1.077
-0.025139553 -0.033462208 1.0760587
-0.01979075 -0.033930507 1.075
-0.031157609 -0.029269271 1.077
-0.02518913 -0.026783179 1.0763845
-0.019753929 -0.029160563 1.0730001
-0.10291716 -0.12292883 1.087
-0.094340727 -0.12292883 1.087
-0.028816797 -0.063110031 1.086625
-0.033897322 -0.053636722 1.087
-0.026354687 -0.053842697 1.0865713
-0.034610718 -0.044499345 1.0865713
-0.025818527 -0.044826265 1.0839583
-0.0198828 -0.043552801 1.08
-0.034155183 -0.035918158 1.0821428
-0.026287289 -0.03812667 1.0805
-0.032533295 -0.026003102 1.080889
-0.02625218 -0.024358582 1.08
-0.0274572 -0.0198828 1.08
-0.11251929 -0.12085405 1.097
-0.10591568 -0.12145285 1.090875
-0.094601102 -0.12207365 1.09
-0.087166965 -0.12165386 1.0926667
-0.10355646 -0.11697955 1.09375
-0.094785079 -0.11549639 1.0952857
-0.085587211 -0.11505075 1.0952413
-0.075126216 -0.11355487 1.09588
-0.066085666 -0.11199047 1.0960001
-0.092739277 -0.10811733 1.0962501
-0.084856018 -0.10624965 1.0968126
-0.075183064 -0.10517082 1.0968889
-0.064386889 -0.10474518 1.0961601
-0.05578405 -0.10245808 1.094
-0.075974561 -0.099055439 1.097
-0.06323199 -0.096170321 1.097
-0.055067964 -0.095208623 1.097
-0.046642613 -0.093605794 1.097
-0.060971987 -0.087130323 1.097
-0.054656804 -0.085751891 1.097
-0.045126304 -0.085454091 1.0951999
-0.037720513 -0.08386299 1.0920001
-0.052449822 -0.076122515 1.097
-0.045259915 -0.075112171 1.0934285
-0.035544597 -0.075389981 1.0908334
-0.044372078 -0.065034382 1.0922917
-0.035355967 -0.064978547 1.09
-0.029622566 -0.069756366 1.09
-0.042248897 -0.055656254 1.0924445
-0.037093356 -0.055335995 1.09
-0.041089367 -0.048733901 1.09
-0.038541187 -0.048096854 1.09
-0.034762174 -0.025197154 1.0913334
-0.11177704 -0.11821879 1.1023334
-0.10490106 -0.11455877 1.1018
-0.099416628 -0.11196436 1.1010001
-0.098632015 -0.10926685 1.103
-0.084745437 -0.10289139 1.1010001
-0.070460327 -0.10231226 1.1010001
-0.080112427 -0.099416628 1.1010001
-0.073172927 -0.096056275 1.1031109
-0.06701047 -0.093464941 1.1013999
-0.052121341 -0.09555579 1.1010001
-0.047295291 -0.096521005 1.1010001
-0.064086087 -0.085982889 1.1019999
-0.058877811 -0.081077635 1.1010001
-0.05590152 -0.076788634 1.1032
-0.048349921 -0.061887406 1.103
