# .PCD v0.7 - Point Cloud Data file format
VERSION 0.7
FIELDS x y z
SIZE 4 4 4
TYPE F F F
COUNT 1 1 1
WIDTH 271
HEIGHT 1
VIEWPOINT 0 0 0 1 0 0 0
POINTS 271
DATA ascii
0.13680735 0.02868541 0.83900005
0.13807778 0.03497079 0.83900011
0.14496209 0.037191901 0.83900005
0.15204318 0.037931986 0.83900011
0.1365867 0.046852831 0.83899993
0.14477573 0.044830594 0.83830643
0.15235266 0.045057651 0.83778256
0.1357875 0.053490039 0.83882612
0.14440778 0.052432299 0.83899999
0.15188557 0.052222159 0.83900011
0.12574117 0.018600987 0.84871435
0.13532373 0.018288873 0.84583336
0.14455979 0.017018817 0.84780008
0.15037902 0.018519584 0.84500003
0.118048 0.025879432 0.84857899
0.12541269 0.024486678 0.84651035
0.13467428 0.024388306 0.84314984
0.14474948 0.024228008 0.84442216
0.15414152 0.02514719 0.84561527
0.16265601 0.027273828 0.84850001
0.11623155 0.035046995 0.8478207
0.12509052 0.034788765 0.84434688
0.13391273 0.034535583 0.84099972
0.14504889 0.032419443 0.84123987
0.15555803 0.033957787 0.84316671
0.1647635 0.034878224 0.84657145
0.17458738 0.036172155 0.84862196
0.18123461 0.037214499 0.84900004
0.11553685 0.044979889 0.84681815
0.12505062 0.045137502 0.8440612
0.13359182 0.043615773 0.84127563
0.15789063 0.044747028 0.84099972
0.16508675 0.045155723 0.84442848
0.1734371 0.045008294 0.84862536
0.11805406 0.052912652 0.84790915
0.12552302 0.054828946 0.84651232
0.13428517 0.056216665 0.84319061
0.14540704 0.05726717 0.84161538
0.15530583 0.055766314 0.84217644
0.16494256 0.05473436 0.84489471
0.17397943 0.055701796 0.84796572
0.18086247 0.058054619 0.84900004
0.126827 0.061478358 0.8490001
0.13499801 0.063206241 0.84756261
0.14486514 0.064991809 0.84607697
0.15466574 0.064244717 0.84661126
0.16442458 0.063001208 0.84757149
0.17360045 0.061132159 0.84866667
0.1804364 0.060145471 0.84700006
0.14513655 0.070707552 0.84900004
0.11613536 0.01815594 0.85580003
0.12461416 0.01720731 0.85344446
0.1395101 0.01566691 0.85100001
0.14514688 0.014340611 0.85099995
0.10822917 0.02780845 0.85733336
0.11345004 0.024007417 0.85370278
0.1681543 0.028398301 0.85250002
0.10711341 0.035551962 0.85652179
0.11101467 0.034867093 0.85258824
0.17541647 0.031785678 0.85457146
0.10672276 0.045002352 0.85612005
0.11075692 0.046632268 0.85249996
0.1774144 0.04541235 0.85149997
0.1819441 0.045879204 0.85353845
0.10724767 0.053156029 0.85699993
0.113239 0.057540204 0.85769701
0.12075148 0.05850932 0.852
0.17860982 0.053837754 0.85166663
0.18253927 0.052886795 0.85485715
0.11850079 0.061881561 0.85733336
0.12482335 0.06587331 0.85488904
0.13358331 0.068114072 0.85253328
0.14187118 0.069443174 0.85175002
0.15809835 0.068468831 0.852
0.16569346 0.068223901 0.85281241
0.1747968 0.065998092 0.85359257
0.11888337 0.077702478 0.85720003
0.12604757 0.075473927 0.85628599
0.13499855 0.074999847 0.85550034
0.1442378 0.074342735 0.85600001
0.15515913 0.072708659 0.85500002
0.16498677 0.072344147 0.85753834
0.17310885 0.071886912 0.85799992
0.11831609 0.082628362 0.85600007
0.12500441 0.082804486 0.85384381
0.13510038 0.08399418 0.85377783
0.1428778 0.085124202 0.85668987
0.13582723 0.090801626 0.85600013
0.16819365 -0.012612408 0.86900002
0.17217207 -0.012950997 0.86900002
0.15922108 -0.0060945866 0.86900002
0.16584593 -0.0050994819 0.86819994
0.17487787 -0.0050995261 0.86804992
0.18146631 -0.0031996581 0.86900008
0.16724211 0.005430284 0.86782759
0.17482594 0.0053205299 0.86704779
0.18423957 0.00572334 0.86790484
0.099224642 0.018936001 0.86400002
0.10531333 0.018342577 0.86200011
0.11233607 0.0180944 0.86000001
0.16716462 0.014599529 0.86818182
0.17481612 0.015201403 0.86700022
0.18394609 0.0149246 0.86734301
0.099684015 0.021307383 0.86800003
0.10467482 0.024557473 0.86339527
0.16814825 0.023561029 0.86709994
0.17513461 0.024616988 0.86664879
0.18322961 0.024227466 0.86824149
0.099257804 0.036206186 0.86649996
0.1027275 0.034893084 0.8621667
0.1783438 0.030983154 0.86199999
0.098164529 0.044824153 0.86663157
0.10189339 0.044791881 0.86160004
0.098563388 0.05227213 0.86771429
0.10390446 0.055819977 0.86232263
0.10702191 0.062766016 0.86407155
0.11474556 0.065512419 0.8620528
0.12138326 0.067854002 0.86000001
0.11633068 0.074465804 0.86221218
0.12232567 0.072943054 0.86000007
0.14738287 0.078219123 0.86066669
0.15484896 0.077803314 0.86161923
0.16527565 0.07703612 0.86300015
0.17134647 0.078266829 0.86675006
0.11424679 0.08235582 0.86307693
0.14789578 0.08338853 0.86160004
0.15422361 0.083741724 0.86445838
0.16431133 0.084437422 0.86770838
0.15933067 -0.030018819 0.87800002
0.16240951 -0.030018819 0.87800002
0.15730928 -0.023683589 0.87650013
0.16510172 -0.024303146 0.8752777
0.1748514 -0.023825357 0.87478125
0.18422724 -0.023503046 0.8760401
0.19011919 -0.02540054 0.87800002
0.15581822 -0.014917338 0.87428206
0.16454911 -0.015850309 0.87193334
0.17591189 -0.015918484 0.87209076
0.18512574 -0.015244009 0.87311399
0.19094983 -0.012627944 0.87300003
0.14923935 -0.0099492902 0.87300003
0.15550436 -0.0054226974 0.87129259
0.16264182 -0.006363139 0.87100017
0.17867693 -0.009926497 0.87100005
0.18578625 -0.0060173855 0.87143761
0.19232135 -0.0048298659 0.87523538
0.15679152 0.0047753146 0.87137514
0.16258414 0.0051924097 0.87110025
0.18783987 0.00076357665 0.87100005
0.19458961 0.0053982823 0.87368405
0.20020875 0.0069037499 0.87500006
0.15819268 0.015050045 0.87123549
0.16355664 0.015966993 0.87140018
0.18860343 0.018325839 0.87100005
0.1938237 0.015217718 0.87209672
0.097705953 0.02650946 0.87464291
0.10002854 0.026725182 0.87100011
0.16520761 0.021615172 0.87209105
0.18756634 0.026995925 0.87150019
0.19352354 0.024895303 0.87513798
0.096471809 0.035447329 0.87491316
0.10002854 0.031306643 0.87100005
0.18747264 0.032397106 0.87462503
0.19336374 0.032676 0.87700009
0.094166897 0.045291752 0.87448007
0.094728217 0.054611139 0.87361532
0.10002854 0.056504674 0.87100005
0.10808588 0.067915037 0.87287509
0.11071862 0.069485478 0.87100005
0.10834219 0.072228789 0.87650001
0.11260652 0.074136339 0.8718335
0.17485906 0.078648396 0.87100005
0.17409548 0.080175549 0.87100005
0.15620784 -0.033521693 0.88509667
0.16541094 -0.03393539 0.88381809
0.17470786 -0.033630092 0.88425004
0.18299934 -0.033130419 0.88404357
0.14948526 -0.021688296 0.88350004
0.15293722 -0.025350731 0.88109094
0.16586533 -0.028544268 0.88000005
0.17589438 -0.028544264 0.88000005
0.18624887 -0.027798047 0.88080007
0.14916377 -0.01623166 0.88160002
0.15150264 -0.017233901 0.88022226
0.19363813 -0.010029066 0.88000005
0.19622977 -0.003483654 0.88125008
0.20029466 -0.00077935663 0.88900006
0.19871753 0.00077321997 0.88200003
0.094446808 0.028051579 0.88066673
0.19857553 0.025766987 0.88
0.20026398 0.02628948 0.88200003
0.089071527 0.035629924 0.88350004
0.092427447 0.03420515 0.88127267
0.088920303 0.043300319 0.88200003
0.091136515 0.043250352 0.88100004
0.091573529 0.051389761 0.88150007
0.10410177 0.067793287 0.88125002
0.10372996 0.072280161 0.88114291
0.15778422 -0.041398831 0.89100003
0.16497105 -0.042104103 0.89270002
0.14969434 -0.036835779 0.89400005
0.15359463 -0.037138227 0.89099985
0.1647674 -0.03923855 0.89159995
0.1726253 -0.038795128 0.89100003
0.1989516 -0.011010056 0.89700007
0.20515648 -0.010549106 0.89800006
0.21176936 -0.010234207 0.89800006
0.20483221 -0.0041234531 0.89740014
0.21172614 -0.0046507968 0.89781821
0.20614509 0.00078680838 0.89750004
0.19869913 -0.02137401 0.90300006
0.20343825 -0.022174658 0.90800005
0.19850501 -0.016279873 0.90140009
0.20514898 -0.015694499 0.90205282
0.21123838 -0.013170748 0.90133333
0.20581876 -0.0079011777 0.90125
0.21184492 -0.0036334328 0.90100002
0.20817465 0.0045316499 0.90227276
0.21369524 0.0034822517 0.90214998
0.19864389 -0.024730766 0.91000003
0.20183498 -0.024730766 0.91000003
0.02897208 0.0088525796 0.91800004
0.044262901 0.0088525796 0.91800004
0.029374469 0.01166931 0.91800004
0.035004269 0.015461111 0.91789275
0.043128766 0.014738638 0.91568202
0.03682236 0.024737956 0.91655159
0.04348515 0.024996912 0.91565561
0.039305348 0.031283848 0.91500002
0.043424588 0.031360775 0.91725004
0.037062295 -0.0025639804 0.92684639
0.043933716 -0.003016297 0.92564303
0.036454339 0.0048569962 0.92403316
0.043581173 0.0044875774 0.92372739
0.037638221 0.011022623 0.92000002
0.035849523 -0.012302011 0.93542874
0.041483086 -0.012492889 0.93600011
0.036248479 -0.0072266329 0.93161541
0.042233318 -0.0077224597 0.93244457
0.077346548 -0.061372802 0.95900005
0.087295115 -0.064175226 0.95899993
0.095381327 -0.065986589 0.958
0.10565089 -0.066305056 0.95899987
0.11419825 -0.064595588 0.95899993
0.12106416 -0.061372802 0.95900005
0.077270105 -0.054570589 0.95899981
0.081550173 -0.055487741 0.95900005
0.097019471 -0.05868249 0.95899999
0.11517908 -0.05610428 0.95899987
0.12022343 -0.059691355 0.95900005
0.073983654 -0.046239782 0.95900005
0.10509042 -0.049602676 0.95900005
0.11013476 -0.049602676 0.95900005
0.085178681 -0.062689267 0.96200007
0.09391889 -0.062638149 0.96199995
0.1038622 -0.062732518 0.96199995
0.11478975 -0.065031916 0.96200001
0.12376123 -0.065439716 0.96407139
0.069014005 -0.053827334 0.96240008
0.073501483 -0.056893911 0.96199995
0.086149022 -0.055439811 0.96227998
0.093862742 -0.054843355 0.9624849
0.10457581 -0.055661328 0.96200013
0.11252743 -0.056625154 0.96199995
0.068438739 -0.04816249 0.96380007
0.074653625 -0.0487925 0.96346158
0.082719803 -0.048546817 0.96480018
0.095812127 -0.049511857 0.96380007
0.10373246 -0.049757849 0.96200007
0.08714129 -0.047763433 0.97042859
0.091839597 -0.048470899 0.97000003
