# .PCD v0.7 - Point Cloud Data file format
VERSION 0.7
FIELDS x y z
SIZE 4 4 4
TYPE F F F
COUNT 1 1 1
WIDTH 225
HEIGHT 1
VIEWPOINT 0 0 0 1 0 0 0
POINTS 225
DATA ascii
-0.17366941 0.027949484 1.0183077
-0.1651178 0.028560311 1.0181
-0.15453266 0.028086644 1.0147142
-0.14617208 0.028065432 1.0129999
-0.17399585 0.034797743 1.0178003
-0.16476563 0.035558738 1.0141003
-0.15506811 0.034759652 1.0166003
-0.14467499 0.034830406 1.0187002
-0.1378964 0.034060754 1.0185715
-0.18134463 0.040199548 1.0190001
-0.17412989 0.044529062 1.0173848
-0.16473065 0.04506994 1.0153334
-0.15662184 0.043767694 1.0188698
-0.14512442 0.041011661 1.0190001
-0.13846512 0.040199548 1.0190001
-0.17285807 0.054827712 1.0190001
-0.16521616 0.055368423 1.0187005
-0.1558443 0.055629686 1.0190005
-0.14471838 0.058959339 1.0190001
-0.13440455 0.056279365 1.0190001
-0.12570336 0.054237481 1.0190001
-0.17164569 0.064446904 1.0190001
-0.16495445 0.065091193 1.0170803
-0.15600674 0.06415686 1.0190003
-0.14512442 0.062451422 1.0190001
-0.16258484 0.07057254 1.0190001
-0.15990488 0.07057254 1.0190001
-0.18008661 0.028670507 1.0220001
-0.18316247 0.035357501 1.0236501
-0.13421382 0.036017321 1.0220002
-0.12645619 0.036600299 1.0238334
-0.11626239 0.037615225 1.0265
-0.19015601 0.040554598 1.028
-0.18410912 0.045045011 1.0240687
-0.17560685 0.049277432 1.0220001
-0.15375938 0.046382811 1.0220002
-0.14496523 0.046410374 1.0219998
-0.13519204 0.044961218 1.0222068
-0.1256164 0.044862248 1.0235
-0.11732545 0.044666488 1.0265789
-0.19105722 0.055875227 1.028
-0.18439984 0.054945651 1.0248845
-0.17605482 0.055549104 1.0220002
-0.15141611 0.052861243 1.0220001
-0.14514445 0.053757191 1.022
-0.13578671 0.054752707 1.0220001
-0.12489568 0.054886837 1.0221877
-0.1150134 0.054810949 1.0249999
-0.18147218 0.062136818 1.0235001
-0.17580961 0.063766979 1.0224288
-0.15432796 0.068316445 1.0220002
-0.14493039 0.067018531 1.022158
-0.13472493 0.065482408 1.0240998
-0.1251712 0.064443931 1.0244373
-0.11503612 0.064258799 1.0244542
-0.15475339 0.071647733 1.0230002
-0.14532942 0.072667487 1.0233333
-0.13492979 0.073308624 1.0251427
-0.1252469 0.0741468 1.0258181
-0.11715773 0.073899493 1.028
-0.21020538 0.02638942 1.0380001
-0.20838542 0.02638942 1.0380001
-0.19591571 0.028635439 1.0370001
-0.18945293 0.028100673 1.034
-0.21020538 0.03002934 1.0380001
-0.20110558 0.03002934 1.0380001
-0.19477189 0.034047537 1.0357503
-0.18931551 0.03441903 1.03325
-0.11196051 0.036716554 1.0316001
-0.10699079 0.037700329 1.0350909
-0.21111536 0.04458902 1.0380001
-0.20434417 0.047218703 1.0376365
-0.19442318 0.045641545 1.0338001
-0.1132994 0.045564342 1.031
-0.10685346 0.04440606 1.0356523
-0.20368648 0.051497348 1.0346667
-0.19568911 0.053018272 1.0316252
-0.10604328 0.055692453 1.0346401
-0.094637923 0.059148699 1.0380001
-0.11478809 0.069595933 1.031
-0.10515316 0.065270998 1.0340557
-0.095927201 0.063983604 1.0344446
-0.12021116 0.073211312 1.031
-0.11388426 0.072608747 1.031
-0.10688429 0.071559444 1.03325
-0.23392777 0.0058046295 1.04575
-0.22854964 0.0064250901 1.0470001
-0.21245718 0.0055030123 1.0464
-0.2054614 0.0066670501 1.0466
-0.19917779 0.0082608303 1.0470001
-0.18999909 0.00550722 1.0470001
-0.236581 0.013538582 1.0470001
-0.22318363 0.016027423 1.0470001
-0.21522807 0.014649187 1.0447003
-0.20538701 0.01466846 1.045917
-0.19644246 0.015987355 1.0468422
-0.24139981 0.026618229 1.0470001
-0.2346092 0.025568675 1.0485001
-0.22414163 0.025282063 1.0460002
-0.21507515 0.024403291 1.0415457
-0.20466901 0.024210462 1.0422503
-0.19637492 0.02408627 1.0435002
-0.23328282 0.033880483 1.0445623
-0.22526151 0.034700297 1.0417002
-0.21539445 0.034950145 1.0410885
-0.2056269 0.03486573 1.0418278
-0.1991315 0.037782054 1.041
-0.23155572 0.043016277 1.044
-0.22544216 0.045009341 1.0430002
-0.21553573 0.044363789 1.0412402
-0.20524633 0.042796861 1.0418572
-0.19986159 0.042892668 1.041
-0.10280845 0.046677239 1.0439999
-0.22339569 0.051053558 1.0420001
-0.21551421 0.050778534 1.0422857
-0.10262839 0.052503746 1.0434
-0.095134832 0.056026068 1.0434375
-0.08877828 0.05582964 1.044
-0.22795263 -0.021312643 1.057
-0.2317587 -0.013211607 1.0555456
-0.22521913 -0.014710153 1.0565199
-0.21500264 -0.014089286 1.0561426
-0.20421647 -0.011903717 1.057
-0.19600806 -0.013314307 1.0569999
-0.18625396 -0.010193003 1.057
-0.23237848 -0.0044705612 1.0546666
-0.22493947 -0.0047870749 1.0566248
-0.21529642 -0.0046220673 1.0540001
-0.20457615 -0.0043275063 1.0540001
-0.19498943 -0.0046297158 1.0555
-0.18805334 -0.0064856671 1.0567
-0.23155896 0.0040775021 1.0511429
-0.22453187 0.0045267078 1.0528183
-0.21689261 0.0039916388 1.0516001
-0.2051181 0.0024546664 1.0500001
-0.19575803 0.0044647949 1.0513847
-0.2402505 0.018410001 1.0500001
-0.23412572 0.015171441 1.0501738
-0.22682202 0.013699207 1.0500001
-0.1955405 0.010914499 1.0500001
-0.2410395 0.0248535 1.0500001
-0.228284 0.022092 1.0500001
-0.2402505 0.031296998 1.0500001
-0.23779583 0.031603832 1.0500001
-0.1003345 0.047866002 1.0500001
-0.098493502 0.048786499 1.0500001
-0.1003345 0.051548 1.0500001
-0.097112752 0.052008249 1.0500001
-0.22574401 -0.031180112 1.067
-0.21428101 -0.031069441 1.0647143
-0.20578873 -0.03086831 1.067
-0.23017848 -0.026093107 1.0630001
-0.22469322 -0.025245156 1.0631599
-0.21505475 -0.025306942 1.0629998
-0.2050366 -0.025168572 1.0631069
-0.19528787 -0.024542624 1.0640869
-0.18843687 -0.024835676 1.0623333
-0.22348863 -0.019049967 1.0600001
-0.2146606 -0.0195146 1.0600001
-0.20580524 -0.017109439 1.0600002
-0.19356076 -0.01656281 1.0600002
-0.18728948 -0.014952743 1.0600002
-0.23510447 -0.0027878 1.0600001
-0.2110575 -0.032831166 1.0700001
-0.20406659 -0.034237716 1.0719999
-0.19570121 -0.032755502 1.0713124
-0.18791933 -0.031580456 1.0700001
-0.1941729 -0.029079033 1.0700001
-0.18854471 -0.029079033 1.0700001
-0.23919851 -0.00093803334 1.0700001
-0.20106876 0.016512893 1.108
-0.1975719 0.01728997 1.108
-0.19355096 -0.0041285162 1.1156666
-0.18767217 -0.0034887574 1.1141428
-0.19479832 0.0048944298 1.1165998
-0.18819241 0.0046126442 1.1155714
-0.04528499 -0.022916555 1.1256667
-0.044884671 -0.016031604 1.12525
-0.14380364 -0.09221106 1.138
-0.13867289 -0.093778789 1.138
-0.14665405 -0.088790558 1.138
-0.12370819 -0.080809377 1.138
-0.12271055 -0.078814089 1.138
-0.073659584 -0.0533741 1.1380001
-0.065445617 -0.052077156 1.1380001
-0.055868212 -0.053872921 1.138
-0.070832916 -0.048884686 1.138
-0.064662941 -0.045047522 1.1376671
-0.055416267 -0.044326361 1.1355239
-0.062102713 -0.036030296 1.1351999
-0.054571673 -0.034729529 1.13176
-0.047880609 -0.033021111 1.13
-0.053833265 -0.025242405 1.1301903
-0.047408883 -0.026464062 1.13
-0.051243503 -0.016530426 1.1313334
-0.047220189 -0.016180346 1.13
-0.1338169 -0.093644395 1.1415713
-0.12537055 -0.09451931 1.1440477
-0.11589648 -0.092947632 1.1419231
-0.10602933 -0.091025174 1.141
-0.14233509 -0.08772926 1.1450001
-0.13488406 -0.087334774 1.1470002
-0.12545036 -0.0856646 1.1422731
-0.11535161 -0.085261986 1.1442003
-0.10541225 -0.08533296 1.1451603
-0.095346645 -0.085309096 1.1448404
-0.086125091 -0.083580293 1.1450002
-0.11378266 -0.077827446 1.1463335
-0.10519791 -0.075676501 1.1456959
-0.095373295 -0.07529372 1.1451603
-0.085310228 -0.075273797 1.1448404
-0.076055661 -0.073678248 1.1415
-0.069019087 -0.071019642 1.141
-0.10173629 -0.069503009 1.149
-0.094301723 -0.067500263 1.1463336
-0.085070856 -0.06534645 1.1438336
-0.075041227 -0.065037064 1.1413202
-0.065653041 -0.064253345 1.1416003
-0.059016325 -0.061016876 1.141
-0.082454301 -0.057751585 1.1423334
-0.076221086 -0.056815714 1.1409999
-0.064556316 -0.057323549 1.1409999
-0.056215543 -0.054615099 1.1409999
-0.072353341 -0.047679853 1.141
-0.13591665 -0.08418718 1.1570001
