# .PCD v0.7 - Point Cloud Data file format
VERSION 0.7
FIELDS x y z
SIZE 4 4 4
TYPE F F F
COUNT 1 1 1
WIDTH 251
HEIGHT 1
VIEWPOINT 0 0 0 1 0 0 0
POINTS 251
DATA ascii
-0.18187009 -0.031714842 0.98437512
-0.17468561 -0.033584282 0.98607677
-0.16504219 -0.0338604 0.9872424
-0.15525393 -0.031569574 0.98658347
-0.14923672 -0.030192399 0.98400003
-0.18190464 -0.02610608 0.98620003
-0.17481574 -0.024988633 0.98542839
-0.16471542 -0.025137046 0.9866249
-0.15482812 -0.025083046 0.98663992
-0.1455211 -0.024683718 0.98611104
-0.1362396 -0.022706544 0.98860008
-0.17382888 -0.018823387 0.98827273
-0.16416055 -0.015824178 0.98790902
-0.15488333 -0.015574857 0.98699987
-0.14536536 -0.015574861 0.98699981
-0.13691127 -0.015019928 0.98844463
-0.12225029 -0.01300535 0.98900002
-0.18120788 -0.0017340467 0.98900002
-0.17425011 -0.0026007409 0.98887515
-0.16470312 -0.0051940158 0.98706663
-0.15508561 -0.0050514336 0.98463625
-0.14528173 -0.0051912302 0.98644423
-0.13712166 -0.0049647223 0.98881835
-0.1817859 0.0014450388 0.98900002
-0.17408879 0.0043296744 0.98837513
-0.16476794 0.0054007564 0.98767638
-0.15568344 0.0034635107 0.9865911
-0.14507517 0.0027785259 0.98657912
-0.13481677 0.0051872907 0.98618746
-0.12607871 0.0067832768 0.98684222
-0.17045818 0.01124851 0.98700005
-0.16615126 0.01224766 0.98785716
-0.13319796 0.013260256 0.98807704
-0.12494881 0.014448547 0.98715389
-0.18525879 -0.022266457 0.99599999
-0.13460724 -0.021070858 0.9932
-0.12793489 -0.020644039 0.99500006
-0.18405961 -0.014543426 0.99718171
-0.17529139 -0.013799704 0.99373686
-0.16958241 -0.0130448 0.99200004
-0.13389511 -0.015483514 0.9921999
-0.12565519 -0.014793945 0.99255568
-0.1170228 -0.013054124 0.99281812
-0.19199729 -0.0072848075 0.99700004
-0.18464155 -0.0063002137 0.99433357
-0.17558537 -0.0073986277 0.99274987
-0.1695824 -0.0086965337 0.99200004
-0.13268425 -0.0055906284 0.99199992
-0.1253022 -0.0052198921 0.99258351
-0.11543632 -0.0050283018 0.99535322
-0.10783307 -0.0050307512 0.99800009
-0.18001825 0.0043482669 0.99200004
-0.1761048 0.0047830935 0.99200004
-0.15386525 0.008232709 0.9924615
-0.14520435 0.0080645736 0.99259984
-0.13131765 0.0008696533 0.99200004
-0.1237395 0.0034310159 0.99358815
-0.1157992 0.0050064041 0.99727261
-0.16228351 0.014323378 0.99281812
-0.15523294 0.014827237 0.99480033
-0.1447567 0.014824871 0.99470037
-0.13599065 0.016383072 0.99224997
-0.12305593 0.016523413 0.99200004
-0.1154066 0.014963824 0.99603438
-0.10861424 0.016123403 0.99800009
-0.15448725 0.020074615 0.99560004
-0.14407909 0.021799657 0.99464709
-0.13458505 0.023317846 0.99638486
-0.12554221 0.022995098 0.9972499
-0.11461365 0.022529017 0.99800009
-0.10819762 0.021581195 0.99800009
-0.12511261 0.030621966 0.99799997
-0.19186704 -0.03264071 1.00625
-0.18921418 -0.033840794 1.0070001
-0.20594853 -0.022848247 1.0059091
-0.1935508 -0.023786511 1.0049
-0.18904878 -0.025504863 1.0030001
-0.20157342 -0.016478995 1.0070001
-0.19438897 -0.015126922 1.0041364
-0.18867181 -0.015795778 1.001
-0.19305953 -0.0096529769 1.001
-0.10436179 -0.0028539887 1.0025002
-0.099756777 -0.00088280335 1.0070001
-0.11144801 0.0078978902 1.001
-0.10641 0.0048136311 1.0042999
-0.098582044 0.00088017335 1.0040001
-0.111448 0.011408064 1.001
-0.10561049 0.014724495 1.0028751
-0.13075395 0.027203843 1.001
-0.123782 0.026629686 1.0014001
-0.11650112 0.024779331 1.0021999
-0.20576213 -0.061937083 1.0190001
-0.19802 -0.06223486 1.0190001
-0.17419805 -0.062532634 1.0190001
-0.21350428 -0.053530674 1.0190001
-0.2051944 -0.055167966 1.0172861
-0.19516136 -0.054611824 1.0190005
-0.18634725 -0.05270607 1.0190001
-0.17419805 -0.059852663 1.0190001
-0.22065087 -0.043772839 1.0190001
-0.2152494 -0.044657215 1.0188005
-0.2050866 -0.04473481 1.0158237
-0.19476219 -0.045308106 1.0171616
-0.18741381 -0.047299672 1.018
-0.21479917 -0.034989484 1.0185913
-0.20598276 -0.034862116 1.0175003
-0.19605011 -0.035887774 1.0112225
-0.21226907 -0.028647715 1.0148001
-0.20455459 -0.025930004 1.0130001
-0.19804206 -0.026571151 1.0103002
-0.20099336 -0.018594099 1.01
-0.19922251 -0.018594099 1.01
-0.19448182 -0.080207989 1.028
-0.18354712 -0.081109203 1.028
-0.17573661 -0.082501978 1.028
-0.16852689 -0.082010418 1.028
-0.22079727 -0.071195856 1.028
-0.21538997 -0.071195856 1.028
-0.20495944 -0.073750503 1.0270454
-0.19482748 -0.074740477 1.0252305
-0.18517561 -0.074549347 1.0262412
-0.17729872 -0.075401515 1.028
-0.16762567 -0.078405559 1.028
-0.22381905 -0.063255802 1.0272856
-0.21499695 -0.064952962 1.0248927
-0.20514579 -0.065964535 1.0227143
-0.19486263 -0.065012872 1.0221933
-0.18513606 -0.064710721 1.0251666
-0.17731157 -0.065135583 1.0237144
-0.23279376 -0.05448154 1.0272499
-0.22541577 -0.05508038 1.026222
-0.21753748 -0.055369921 1.0220002
-0.19173402 -0.058236968 1.0220001
-0.18507206 -0.057302583 1.024
-0.17829472 -0.058236968 1.0220001
-0.23215453 -0.045564387 1.02575
-0.22597474 -0.045050498 1.0236799
-0.2318345 -0.038639084 1.0250001
-0.2254166 -0.036820352 1.0244
-0.21891125 -0.033747572 1.0220001
-0.20875713 -0.033150274 1.0220001
-0.19309774 -0.10228175 1.0380001
-0.18480511 -0.10266994 1.0377144
-0.17714278 -0.10161444 1.0380001
-0.20235185 -0.093914144 1.036
-0.19490644 -0.095590383 1.0362225
-0.18491144 -0.095197238 1.0348891
-0.1749761 -0.095370233 1.0353216
-0.16533875 -0.094013877 1.0353335
-0.1592465 -0.093727939 1.0380001
-0.21346438 -0.082085893 1.0335001
-0.20497321 -0.08483725 1.0326073
-0.19527951 -0.085641056 1.0319002
-0.18563436 -0.085886829 1.0312501
-0.17498855 -0.085958265 1.0312401
-0.16565272 -0.086621486 1.0341365
-0.22144161 -0.073211312 1.031
-0.2155098 -0.076029502 1.0318573
-0.20577501 -0.077730529 1.031
-0.17307605 -0.074500591 1.0322002
-0.16841614 -0.076224118 1.031
-0.18348019 -0.056038287 1.031
-0.19542889 -0.10442865 1.041
-0.18708506 -0.10677537 1.041
-0.17444649 -0.1048428 1.0431178
-0.16904956 -0.1049512 1.0446
-0.20351203 -0.095824048 1.041
-0.17448597 -0.11463883 1.0550588
-0.16933388 -0.11381719 1.0555
-0.17410424 -0.10962296 1.0508001
-0.16909322 -0.10995679 1.054
-0.17985606 -0.12021467 1.0630001
-0.17748994 -0.1170876 1.0600001
-0.19549504 -0.042647749 1.072125
-0.031157609 -0.040599309 1.077
-0.024863144 -0.040914033 1.077
-0.018666511 -0.04318127 1.0754001
-0.196987 -0.038459368 1.0700001
-0.031629696 -0.037294716 1.077
-0.025474707 -0.035852157 1.0761998
-0.019392392 -0.035957884 1.0738001
-0.16000921 -0.080477998 1.08
-0.17295802 -0.075599633 1.087
-0.16525055 -0.075695321 1.0867273
-0.15829022 -0.076763034 1.0864
-0.021917541 -0.073947884 1.087
-0.17248154 -0.064799696 1.087
-0.16771686 -0.06956438 1.087
-0.033162195 -0.063084409 1.087
-0.024417108 -0.064555459 1.0869063
-0.017384849 -0.063108712 1.086625
-0.033177741 -0.055085208 1.0865
-0.024879999 -0.054580245 1.0858998
-0.017390518 -0.053905118 1.0856364
-0.032302976 -0.0456088 1.08375
-0.025803529 -0.045670081 1.0816842
-0.018761368 -0.047186404 1.0807999
-0.033137999 -0.0369252 1.08
-0.09563604 -0.14414865 1.097
-0.075974569 -0.13944699 1.097
-0.053278364 -0.12559846 1.097
-0.04904687 -0.12405973 1.097
-0.044238351 -0.11828951 1.097
-0.041353244 -0.10097885 1.097
-0.035823449 -0.10314269 1.097
-0.029812803 -0.10097885 1.097
-0.042314947 -0.094727777 1.097
-0.035198342 -0.094246931 1.097
-0.024042584 -0.092515863 1.097
-0.042836662 -0.087062739 1.0966668
-0.035732899 -0.085218221 1.0964783
-0.025171509 -0.084928632 1.0958501
-0.17692944 -0.072025187 1.0922223
-0.16172643 -0.072154924 1.0916002
-0.041240152 -0.079603083 1.0940001
-0.034036215 -0.075895101 1.0909413
-0.02699763 -0.075993754 1.0911112
-0.033683725 -0.067128554 1.09
-0.028985521 -0.069119327 1.09
-0.033444833 -0.051600598 1.09
-0.10188042 -0.14324892 1.1026001
-0.094644926 -0.14164887 1.1016666
-0.087603927 -0.14223428 1.1015713
-0.095096618 -0.13823345 1.1035881
-0.08346656 -0.1359337 1.1047271
-0.074451625 -0.13439648 1.1029198
-0.065872796 -0.13256799 1.1037692
-0.058877811 -0.13030335 1.1010001
-0.081482664 -0.1280455 1.1065
-0.073876888 -0.12573923 1.1023332
-0.064669073 -0.12451211 1.101
-0.056038961 -0.12349011 1.101
-0.047681373 -0.12142342 1.1010001
-0.070460327 -0.11872083 1.1010001
-0.063442908 -0.11625729 1.1020665
-0.055025253 -0.11487695 1.1011599
-0.045634959 -0.11435214 1.1011817
-0.039162889 -0.11265035 1.103
-0.054266252 -0.10617311 1.101
-0.04552573 -0.10536876 1.101
-0.037257105 -0.10501485 1.101
-0.05115613 -0.099416628 1.1010001
-0.046546496 -0.096374243 1.1015333
-0.035970159 -0.096199259 1.101
-0.028128976 -0.095831558 1.101
-0.033782348 -0.089764528 1.1010001
-0.029149342 -0.088220194 1.1010001
-0.092214525 -0.1361887 1.123
-0.088932872 -0.13553236 1.123
-0.09297011 -0.13386914 1.1348889
-0.087981388 -0.13221711 1.1340001
