# .PCD v0.7 - Point Cloud Data file format
VERSION 0.7
FIELDS x y z
SIZE 4 4 4
TYPE F F F
COUNT 1 1 1
WIDTH 262
HEIGHT 1
VIEWPOINT 0 0 0 1 0 0 0
POINTS 262
DATA ascii
0.087186359 0.088001288 0.58884215
0.095721953 0.08681608 0.58809549
0.10424937 0.086675204 0.58826792
0.11394271 0.085370965 0.58900005
0.086877339 0.095293649 0.58835095
0.094446935 0.094731994 0.58607441
0.10486337 0.094581954 0.58608043
0.11461167 0.095096998 0.58751827
0.1217968 0.096777566 0.58888453
0.086396433 0.10516174 0.58850783
0.09448798 0.10476463 0.58578962
0.10461086 0.10460848 0.58492953
0.11470326 0.10492658 0.58671117
0.1210345 0.10366198 0.58861113
0.087566584 0.11239807 0.58872217
0.094874389 0.11445662 0.58689302
0.10480995 0.11478126 0.58598936
0.11457762 0.11443489 0.58761126
0.12111005 0.11346971 0.58886665
0.09827093 0.1221339 0.58870584
0.10497732 0.12240014 0.58843184
0.11184586 0.12096553 0.58883339
0.087155707 0.069375753 0.59649998
0.077989832 0.078064479 0.59821433
0.085138656 0.07556767 0.59614605
0.094065048 0.075716503 0.59349328
0.1046671 0.078723468 0.59174997
0.11091762 0.079673223 0.59400004
0.069397986 0.088925913 0.5988
0.076037616 0.08544825 0.59614462
0.084439822 0.084249116 0.59148127
0.094200432 0.082105346 0.59009534
0.10598505 0.082127929 0.59081084
0.113846 0.085472852 0.59149981
0.068414979 0.095927939 0.59816658
0.074996226 0.09499722 0.59481651
0.082081109 0.094887145 0.59072727
0.1181016 0.091377884 0.59000009
0.12410523 0.097178698 0.59066671
0.068947397 0.10181928 0.59833336
0.075408384 0.10367732 0.59411591
0.081625752 0.10505163 0.59030002
0.12599319 0.10555945 0.59192419
0.13249671 0.10619025 0.59487498
0.085733429 0.11721659 0.59317154
0.092239946 0.11930849 0.59000009
0.11777928 0.1189287 0.5901112
0.1256649 0.11536988 0.59176379
0.13278466 0.11522136 0.59600019
0.086697914 0.12295996 0.59710538
0.094443068 0.12348898 0.59205127
0.10518572 0.12740405 0.59088892
0.11532474 0.12543683 0.59237319
0.12475129 0.12521948 0.59414452
0.13322295 0.12335235 0.59814692
0.098947316 0.13499117 0.59300005
0.10476919 0.13340548 0.59396011
0.11396915 0.13415793 0.59639627
0.12310871 0.13207997 0.59756255
0.13627048 0.058110815 0.60866672
0.14482388 0.05680906 0.60748982
0.15389208 0.057219002 0.60837138
0.076846093 0.067882232 0.60653335
0.082660608 0.068308108 0.60144448
0.12939364 0.067365438 0.60890007
0.13512838 0.064995438 0.60664946
0.14485286 0.064807676 0.60594994
0.15498954 0.064976059 0.60753322
0.16128053 0.066324748 0.6085
0.067998432 0.077515297 0.60600001
0.074595399 0.074582383 0.60293031
0.081202775 0.071331516 0.60049999
0.12904122 0.075331874 0.60900009
0.13505869 0.074951969 0.60674161
0.14507639 0.075364128 0.60567892
0.15494159 0.074931167 0.60707682
0.16113818 0.075419642 0.60831577
0.065911651 0.085422218 0.6035074
0.071785152 0.082711421 0.60062498
0.12884155 0.083427057 0.60856253
0.13522619 0.084637605 0.60754037
0.14500336 0.085051402 0.6054998
0.1554772 0.084940575 0.60719413
0.16089584 0.084352143 0.60863644
0.058641113 0.098657444 0.60699999
0.063820556 0.094148673 0.60185957
0.13673384 0.092309646 0.6084193
0.14490652 0.094230443 0.60814303
0.15456705 0.092106543 0.60862494
0.16043702 0.090079255 0.60800004
0.066878818 0.10489362 0.60351366
0.07024949 0.10669428 0.60250008
0.067692257 0.1106007 0.60800004
0.074369058 0.1182197 0.60812503
0.066779815 0.12758461 0.60748577
0.074989691 0.12559178 0.60676616
0.083309218 0.12646167 0.60404772
0.066552848 0.13181637 0.60537928
0.075386927 0.13487564 0.6031335
0.085045189 0.1348715 0.60623986
0.090079255 0.13858347 0.60800004
0.11821374 0.13778542 0.60131258
0.12271798 0.13693349 0.60152394
0.076455928 0.14286281 0.60439467
0.082021803 0.14187253 0.60300004
0.11861086 0.14152282 0.60311121
0.12105627 0.14008695 0.60300004
0.1471111 0.039336618 0.6146667
0.15061484 0.039549939 0.61800003
0.1287778 0.047250897 0.61705893
0.13514118 0.045259211 0.61537766
0.14495622 0.045256924 0.61398959
0.15448916 0.045506399 0.61528367
0.16153054 0.047576305 0.61736369
0.12708464 0.055121418 0.61413556
0.13429573 0.054147612 0.61122864
0.14477758 0.052401785 0.61119998
0.15594529 0.053013727 0.61214298
0.16260383 0.056325048 0.61310351
0.0675551 0.068460122 0.61705559
0.072220638 0.067631952 0.61227775
0.12594935 0.064072594 0.61315149
0.13073233 0.060818166 0.61033332
0.1647044 0.063001372 0.61426324
0.059646059 0.079110406 0.61666673
0.065193251 0.074736863 0.61479354
0.070747875 0.071206249 0.61071432
0.12475931 0.075544603 0.61127692
0.16415918 0.074368417 0.61135298
0.058001015 0.085612468 0.61613882
0.061865605 0.084022313 0.61153334
0.11983945 0.082221687 0.61300004
0.12537178 0.084957622 0.61210167
0.13101783 0.088236496 0.61000001
0.055328403 0.091129288 0.61874998
0.060527697 0.09052372 0.611
0.12739885 0.093107946 0.61350006
0.13374937 0.095961392 0.61068976
0.14378482 0.098492533 0.61022228
0.15578622 0.096693695 0.61131132
0.16153827 0.098903954 0.61380005
0.13619038 0.1019852 0.61139399
0.14531958 0.10433248 0.61269325
0.15433389 0.10414878 0.61411875
0.16159849 0.10282978 0.61540008
0.066928476 0.11819187 0.61405551
0.07122837 0.11835816 0.61090004
0.14698114 0.11168259 0.6179167
0.1513668 0.11156218 0.61775005
0.0590549 0.126486 0.6124
0.064453423 0.12369543 0.61181539
0.071793057 0.12156755 0.61050004
0.060851187 0.13080393 0.61066669
0.07349503 0.14617419 0.61052626
0.12911612 0.038485445 0.62275004
0.13523491 0.035844244 0.62392491
0.1445867 0.035412434 0.62417102
0.15491644 0.03624792 0.62616396
0.16029125 0.036836438 0.62725002
0.12802203 0.043540865 0.62083334
0.13106138 0.040786918 0.62033337
0.15767968 0.041493952 0.62075007
0.16002585 0.040962249 0.62300003
0.063955761 0.068304025 0.62
0.12120793 0.060875736 0.62
0.16825742 0.065195836 0.62037504
0.17090681 0.063206203 0.62046677
0.1864022 0.068784401 0.62870002
0.056696553 0.07877738 0.62187511
0.062506333 0.070115797 0.62
0.17347795 0.079083577 0.62820005
0.18543261 0.075336754 0.62801343
0.19073549 0.077503473 0.62700003
0.054787714 0.084002718 0.62222224
0.1698568 0.082470663 0.62300003
0.17332473 0.082269251 0.62564999
0.18508318 0.082204312 0.62889993
0.19024105 0.08161065 0.62900001
0.053809799 0.091857135 0.62
0.1463473 0.028755406 0.63361543
0.15170437 0.029049575 0.63480008
0.1347612 0.030928798 0.63000005
0.14742203 0.03083916 0.63100004
0.15482424 0.031871393 0.63120008
0.18415341 0.058577709 0.63540012
0.19012795 0.059658919 0.63600004
0.17826392 0.066362761 0.63395834
0.1843199 0.064440332 0.63321882
0.19053516 0.061839625 0.63550007
0.17764635 0.074486308 0.63090712
0.18157853 0.073831528 0.63006675
0.17867057 0.082687363 0.63020009
0.1845523 0.085639186 0.63040417
0.1907447 0.087615378 0.63250005
0.18525924 0.090690874 0.63122225
0.19064169 0.09059649 0.634
0.11611263 0.14815392 0.64687502
0.11741108 0.15030888 0.64700001
0.18271136 0.02986628 0.66800004
0.17853877 0.034447387 0.66453338
0.1843539 0.035234492 0.66435713
0.19034888 0.036672719 0.66400003
0.18472037 0.042455606 0.66482055
0.177122 0.018688168 0.67889994
0.18040366 0.019208059 0.67766666
0.17627622 0.025198299 0.67654532
0.18287288 0.025994066 0.67364103
0.17696317 0.031115966 0.67287493
0.18045613 0.030565422 0.67050004
0.17300808 0.0085899085 0.68762505
0.16849324 0.01277895 0.68612504
0.17428882 0.014517423 0.68305069
0.17263623 0.024137182 0.68054539
0.01990384 0.039204534 0.68800002
0.021713279 0.039204534 0.68800002
0.033173066 0.039204534 0.68800002
0.017913183 0.046063706 0.68700022
0.02498153 0.045414705 0.686894
0.030715769 0.047579329 0.68700004
0.017162832 0.055210974 0.68611658
0.024213089 0.054967843 0.68528593
0.017872842 0.061817754 0.68581814
0.022283992 0.061431542 0.68700004
0.16516356 0.0050913584 0.69048542
0.17185882 0.0055785221 0.69000006
0.027885765 0.017395822 0.69800001
0.16447519 0.010469154 0.69085711
0.026495779 0.025549611 0.69646442
0.034968302 0.025305061 0.69694227
0.040998194 0.022028878 0.69800001
0.019246779 0.036977142 0.69150001
0.025346568 0.034977064 0.69221568
0.032467447 0.034664374 0.69200009
0.028672259 0.04101222 0.69000006
0.031817742 0.042342998 0.69000006
0.11639729 -0.012146437 0.70749998
0.12472471 -0.012118694 0.70632154
0.13118824 -0.011250439 0.70520008
0.094553098 -0.0009303625 0.70725
0.1161029 -0.0055560381 0.70733356
0.12511918 -0.0049556461 0.7065472
0.13305953 -0.0063186618 0.70660007
0.11979124 0.00062067999 0.708
0.12377362 0.0012973868 0.70754552
0.028842334 0.019023666 0.70000005
0.03475171 0.016084364 0.70195913
0.040616844 0.017230008 0.70200002
0.035202149 0.020474153 0.69999999
0.041115668 0.020251 0.70000005
0.08529529 -0.013472866 0.71762472
0.095431834 -0.013966808 0.71507996
0.10457026 -0.013823535 0.71266669
0.1117864 -0.013177312 0.71053851
0.085668758 -0.0065354942 0.71741271
0.095449328 -0.0056576421 0.71420008
0.10495126 -0.0049931514 0.71260917
0.11194279 -0.0035295852 0.71109533
0.13704298 -0.0034072327 0.71203846
0.14132419 -0.0036244032 0.71330011
0.10701993 0.0023781676 0.71682608
0.11515789 0.0030630729 0.71323091
0.12268944 0.0042103566 0.71131259
