# .PCD v0.7 - Point Cloud Data file format
VERSION 0.7
FIELDS x y z
SIZE 4 4 4
TYPE F F F
COUNT 1 1 1
WIDTH 232
HEIGHT 1
VIEWPOINT 0 0 0 1 0 0 0
POINTS 232
DATA ascii
-0.1442067 -0.1528414 0.93566662
-0.13514447 -0.15334567 0.93080783
-0.1275962 -0.15153797 0.93100005
-0.15048334 -0.14226021 0.93800002
-0.14507408 -0.14483736 0.9345358
-0.1352818 -0.14511442 0.9306488
-0.12625694 -0.14451629 0.9309631
-0.11733833 -0.14031577 0.93600005
-0.15048334 -0.13897096 0.93800002
-0.1437964 -0.13579397 0.93471998
-0.1347528 -0.13513476 0.93302113
-0.12431554 -0.13494775 0.93292856
-0.11559724 -0.13397881 0.93520683
-0.10727069 -0.13345146 0.93400002
-0.14061558 -0.1291032 0.93800002
-0.13404404 -0.12520587 0.93644816
-0.12460724 -0.12460216 0.93511128
-0.11487194 -0.12471906 0.93597209
-0.10909357 -0.12581395 0.93800002
-0.14511089 -0.11594618 0.9379999
-0.13717683 -0.11654422 0.93799996
-0.12509032 -0.11561725 0.9379999
-0.11794322 -0.11571123 0.9379999
-0.13650402 -0.10607842 0.93800002
-0.12509443 -0.10772305 0.9379999
-0.11923543 -0.10607842 0.93800002
-0.10607842 -0.10278916 0.93800002
-0.15359463 -0.15248515 0.94588882
-0.14931475 -0.15261626 0.94100004
-0.15508002 -0.14493845 0.94431996
-0.1614314 -0.13429202 0.94609094
-0.15464191 -0.13460724 0.94425792
-0.14765021 -0.1328007 0.94090003
-0.11195534 -0.13714825 0.94000006
-0.10591691 -0.13362242 0.94195467
-0.098689869 -0.13186294 0.94600004
-0.16151707 -0.12937847 0.94000006
-0.15495212 -0.12552528 0.9422223
-0.14540721 -0.12535933 0.94162893
-0.13761914 -0.12349228 0.94000006
-0.10422084 -0.12527312 0.94205737
-0.09461268 -0.12411745 0.94445449
-0.087016188 -0.12163787 0.94533336
-0.15135355 -0.11756685 0.94000006
-0.14412013 -0.11527777 0.9400003
-0.13412508 -0.11474303 0.94000036
-0.12503339 -0.1142456 0.94000018
-0.11360507 -0.11502726 0.94027305
-0.10474999 -0.11542188 0.94259107
-0.094976813 -0.11489681 0.94679981
-0.088925563 -0.1163512 0.94800007
-0.14241591 -0.10908048 0.94120008
-0.13386147 -0.10630355 0.94062525
-0.12498029 -0.10280405 0.94286215
-0.11508074 -0.10500062 0.94118428
-0.10478793 -0.10494951 0.94157165
-0.095173232 -0.10441329 0.94712478
-0.088925563 -0.10388499 0.94800013
-0.12301124 -0.098135822 0.94600004
-0.11404613 -0.095965818 0.94518185
-0.10593293 -0.096470185 0.94529158
-0.094379127 -0.096039869 0.94735986
-0.087746233 -0.093882099 0.94769233
-0.087595835 -0.087928265 0.94800007
-0.15048948 -0.20093288 0.95900005
-0.14510885 -0.20160547 0.95899999
-0.15133019 -0.19672926 0.95900005
-0.14727943 -0.1968057 0.95899999
-0.16225961 -0.18075551 0.95900005
-0.15385236 -0.18243696 0.95900005
-0.14573644 -0.18221226 0.9587
-0.1636481 -0.17453706 0.95796531
-0.1557356 -0.1757112 0.95899981
-0.14733773 -0.17713761 0.95762503
-0.17066683 -0.16225961 0.95900005
-0.16446823 -0.1644679 0.95716643
-0.15732302 -0.16507787 0.95807683
-0.17114724 -0.15409257 0.95900005
-0.16495663 -0.15477781 0.95724982
-0.15734546 -0.15595549 0.95300013
-0.17066683 -0.14880803 0.95900005
-0.16415021 -0.14510076 0.95382625
-0.15923861 -0.14923409 0.95100003
-0.16390738 -0.1385626 0.95100003
-0.10504746 -0.13589473 0.95100003
-0.090874389 -0.11171713 0.95100003
-0.084676318 -0.11475978 0.95148408
-0.077475965 -0.11407088 0.95412523
-0.090874389 -0.10671487 0.95100003
-0.084803216 -0.10530592 0.95266676
-0.077515699 -0.10530939 0.95735985
-0.11171713 -0.092541806 0.95100003
-0.10360955 -0.093029588 0.95260024
-0.095781498 -0.091987602 0.95154554
-0.083783336 -0.097056076 0.95294136
-0.078045249 -0.097230971 0.9572857
-0.10415965 -0.087431923 0.95411783
-0.09540391 -0.086180054 0.95313823
-0.089206971 -0.087539546 0.95100003
-0.15384682 -0.22328758 0.96600008
-0.13535528 -0.22408505 0.96700007
-0.16308334 -0.21373558 0.96700007
-0.15532418 -0.21202834 0.96700013
-0.1461384 -0.21150267 0.96580011
-0.13149264 -0.21272282 0.96520007
-0.12708379 -0.21281254 0.9655
-0.17107327 -0.20430453 0.96700013
-0.16474482 -0.2047675 0.96597183
-0.1551383 -0.20503557 0.96410376
-0.14559685 -0.20479946 0.96335
-0.13525619 -0.20469238 0.96590042
-0.12760942 -0.2059651 0.96683341
-0.17371607 -0.19367589 0.96592855
-0.16576162 -0.19449528 0.96400028
-0.15614717 -0.19458076 0.96276939
-0.14418831 -0.1946163 0.96282619
-0.13807051 -0.19495127 0.96474999
-0.19173934 -0.18328685 0.96427274
-0.1839835 -0.18290578 0.96631837
-0.17519841 -0.18461885 0.96442884
-0.16545461 -0.18527839 0.96221429
-0.15527532 -0.1859293 0.96206897
-0.14572258 -0.1877127 0.96200001
-0.19044487 -0.17774723 0.96550006
-0.1842865 -0.17512716 0.96503484
-0.17453657 -0.17509654 0.96281481
-0.16927305 -0.17601989 0.96200001
-0.15288685 -0.17359786 0.96254545
-0.14927354 -0.17288743 0.96200007
-0.18414783 -0.16508731 0.96494776
-0.17538247 -0.16541614 0.96355182
-0.15495908 -0.16915475 0.96380007
-0.18395886 -0.15760195 0.96700007
-0.17512047 -0.15560004 0.96344447
-0.17288743 -0.14927354 0.96200007
-0.074369393 -0.10225791 0.96400005
-0.15098041 -0.2311621 0.97300005
-0.14397633 -0.23204799 0.9728182
-0.13471241 -0.23368892 0.97404778
-0.12824756 -0.23434584 0.97599995
-0.15276985 -0.22423105 0.97353339
-0.14524852 -0.22556217 0.97461104
-0.13449059 -0.22537915 0.97274172
-0.12711458 -0.22604026 0.97461128
-0.17396392 -0.21321078 0.97331262
-0.16705838 -0.21452433 0.97000021
-0.15447821 -0.21641991 0.97099996
-0.14738432 -0.21732046 0.9728182
-0.13388161 -0.21914504 0.97266674
-0.127555 -0.21854423 0.97000003
-0.18407957 -0.20374462 0.97319031
-0.17667471 -0.20500614 0.97199988
-0.13237375 -0.20153689 0.97000003
-0.1250039 -0.2066391 0.97000003
-0.19218619 -0.19445911 0.97259992
-0.18504046 -0.19527388 0.97267973
-0.17755811 -0.1962876 0.9710716
-0.13399349 -0.1983784 0.97000015
-0.19218287 -0.1887814 0.97000003
-0.18647328 -0.18817399 0.97000021
-0.1913325 -0.1760259 0.97000003
-0.18963176 -0.1760259 0.97000003
-0.18282883 -0.16071931 0.97000003
-0.18580513 -0.15519193 0.97000021
-0.17942737 -0.15476674 0.97000003
-0.12377268 -0.23451822 0.98142862
-0.11697517 -0.23395428 0.98475009
-0.12269476 -0.2281893 0.98100001
-0.11305493 -0.23741536 0.99200004
0.016409665 -0.19288486 1.02575
0.016598806 -0.1875304 1.0235001
-0.043192863 -0.25617728 1.0357143
-0.035958156 -0.25535786 1.0372728
-0.02684441 -0.25115448 1.0380001
-0.04276906 -0.24478462 1.0380001
-0.028209379 -0.24842454 1.0380001
-0.017896274 -0.24235798 1.0380001
-0.014741676 -0.23896074 1.0380001
0.00272994 -0.2183952 1.0380001
0.013649699 -0.19382572 1.0380001
0.014559681 -0.18472594 1.0380001
0.01410469 -0.17365451 1.0380001
0.0071498426 -0.1634064 1.0380001
0.013478193 -0.16580492 1.0376365
-0.00090997998 -0.15014669 1.0380001
0.005676541 -0.15395996 1.0380001
0.011333387 -0.15329027 1.0380001
-0.00090997998 -0.14832674 1.0380001
0.0059547746 -0.1445898 1.0368149
0.012102675 -0.1449241 1.0353333
0.0060998467 -0.13855365 1.0368572
-0.044015884 -0.25307372 1.0410001
-0.035105065 -0.25291464 1.0410001
-0.0273783 -0.25279295 1.041
-0.042284261 -0.24792571 1.041
-0.034062006 -0.24562308 1.0426003
-0.024854006 -0.24397443 1.0411156
-0.01916481 -0.24001643 1.041
-0.030726947 -0.23801565 1.0462501
-0.024296992 -0.23533703 1.0452002
-0.014637703 -0.23451306 1.0436003
-0.0066193813 -0.23257056 1.041375
-0.02111101 -0.22763176 1.0470001
-0.014256777 -0.22585332 1.0456555
-0.0048400452 -0.22517249 1.0441073
0.00091260998 -0.22176422 1.041
-0.010555505 -0.21707624 1.0470001
-0.0037412758 -0.21470751 1.046308
0.0035685152 -0.2141947 1.0441501
-0.0033637704 -0.20486149 1.0463334
0.004706067 -0.2051384 1.0454485
0.01078037 -0.20338264 1.0422001
-0.0024891072 -0.1977035 1.0461429
0.0045842999 -0.19527993 1.0458002
0.011380948 -0.19584765 1.0446428
-0.00091786997 -0.18816335 1.0470001
0.0057475185 -0.18630032 1.0468422
0.011767934 -0.18557261 1.0442141
0.0050658579 -0.17424539 1.0420911
0.011407626 -0.17628585 1.0410001
0.0035491851 -0.16571586 1.0411668
0.012859505 -0.16485053 1.0410001
-0.00091260998 -0.15423109 1.041
0.0019266212 -0.1568675 1.041
0.013506629 -0.15642133 1.0410001
0.00091260998 -0.14449657 1.041
0.0027378299 -0.13780411 1.041
-0.011966499 -0.21815848 1.0500001
-0.0082844999 -0.2163175 1.0500001
-0.0064435001 -0.2034305 1.0500001
-0.0016568999 -0.1934891 1.0500001
0.0025944551 -0.18441512 1.0503637
