# .PCD v0.7 - Point Cloud Data file format
VERSION 0.7
FIELDS x y z
SIZE 4 4 4
TYPE F F F
COUNT 1 1 1
WIDTH 221
HEIGHT 1
VIEWPOINT 0 0 0 1 0 0 0
POINTS 221
DATA ascii
-0.093487434 -0.122885 1.0656668
-0.085125498 -0.12331334 1.0608001
-0.074830465 -0.12220171 1.0631176
-0.06496188 -0.12135227 1.0655456
-0.15326324 -0.11214408 1.066
-0.093614921 -0.11469427 1.0652857
-0.084536314 -0.11520325 1.0612413
-0.07539653 -0.11449412 1.0617999
-0.065449424 -0.11485522 1.0639653
-0.095148958 -0.10473819 1.0676578
-0.085080691 -0.10496993 1.0638517
-0.075261496 -0.10508021 1.062923
-0.064538881 -0.1047228 1.0674565
-0.093386434 -0.09359429 1.0652223
-0.084694847 -0.094825074 1.0641427
-0.07480178 -0.09507069 1.0647142
-0.065768659 -0.095743641 1.0685
-0.093779758 -0.086204298 1.0649999
-0.084818892 -0.085048072 1.0641665
-0.074993491 -0.085614473 1.0657271
-0.14483568 -0.18184714 1.077
-0.14540218 -0.17844813 1.077
-0.15527402 -0.15194453 1.0765294
-0.14571691 -0.15180153 1.077
-0.13339773 -0.15120207 1.077
-0.12523128 -0.15347053 1.0769998
-0.1199096 -0.1538997 1.077
-0.15480532 -0.14442177 1.0767331
-0.14445603 -0.14468405 1.0758799
-0.13491854 -0.14435099 1.0761998
-0.12519956 -0.14402881 1.0738
-0.11990959 -0.14493009 1.077
-0.16199258 -0.13420703 1.077
-0.15486942 -0.13502693 1.0760343
-0.14499386 -0.13422105 1.0756665
-0.13489847 -0.13489762 1.0760399
-0.12510823 -0.13451484 1.0730001
-0.11868707 -0.13541104 1.0745001
-0.16209166 -0.1258419 1.0756668
-0.15523541 -0.12512974 1.0731599
-0.14491789 -0.12515956 1.0734333
-0.13459703 -0.12518424 1.07364
-0.12492676 -0.12492928 1.07144
-0.1167012 -0.1233617 1.0729231
-0.10325819 -0.12205417 1.0721428
-0.098493502 -0.1210063 1.0700001
-0.06660036 -0.12475843 1.0700001
-0.16115326 -0.11874625 1.075
-0.15495677 -0.11626586 1.07125
-0.14451659 -0.11532903 1.0739375
-0.13450266 -0.11474981 1.0729001
-0.12509836 -0.11489934 1.0711784
-0.11466269 -0.11516577 1.074206
-0.10440437 -0.11474445 1.0728666
-0.098493502 -0.11631612 1.0700001
-0.060972165 -0.11162597 1.0700001
-0.055057731 -0.11438797 1.0730332
-0.045275103 -0.11281945 1.0759999
-0.037766799 -0.11141206 1.077
-0.14256966 -0.10857955 1.077
-0.13500984 -0.10600027 1.076
-0.12496174 -0.10785034 1.0731819
-0.11436424 -0.10605686 1.0749544
-0.10448771 -0.10479805 1.0753332
-0.055485882 -0.1043909 1.07276
-0.045963362 -0.10447904 1.0751537
-0.036822628 -0.10857955 1.077
-0.10345042 -0.095021933 1.074263
-0.097192906 -0.096656136 1.0704286
-0.055453997 -0.094933227 1.07216
-0.045247927 -0.095218778 1.0753999
-0.036507905 -0.092528664 1.077
-0.10480287 -0.089696147 1.077
-0.07356862 -0.08402098 1.0700001
-0.064846016 -0.085522711 1.07204
-0.055802967 -0.085455589 1.0762856
-0.044585805 -0.088856898 1.077
-0.03871097 -0.089696147 1.077
-0.063965112 -0.079956383 1.0730001
-0.055076584 -0.076477766 1.077
-0.15240623 -0.18248244 1.0817143
-0.14621456 -0.18221517 1.0806667
-0.1248347 -0.18010503 1.087
-0.16123536 -0.17073841 1.0840001
-0.15450624 -0.17444344 1.0831426
-0.14473777 -0.17421845 1.0836774
-0.13436407 -0.17200506 1.087
-0.12432396 -0.17384703 1.0863181
-0.1172112 -0.17057566 1.087
-0.16135971 -0.16453354 1.0848333
-0.15495966 -0.16446528 1.0843998
-0.14491893 -0.16426216 1.0820768
-0.13503407 -0.16437809 1.0833331
-0.12477098 -0.16401079 1.0827776
-0.1172112 -0.16485806 1.087
-0.1619028 -0.15290821 1.08
-0.1541706 -0.15669541 1.08
-0.1439767 -0.15584329 1.08
-0.13602358 -0.15538041 1.08
-0.1284492 -0.1574844 1.08
-0.11690684 -0.15492669 1.0841999
-0.16310781 -0.1445161 1.08
-0.14296679 -0.1410732 1.08
-0.1202436 -0.14296679 1.08
-0.11679205 -0.14527987 1.0831332
-0.16442759 -0.13854839 1.08
-0.14296679 -0.13728599 1.08
-0.11835 -0.1391796 1.08
-0.15304759 -0.11135156 1.0810001
-0.14864761 -0.11172239 1.08
-0.043522865 -0.11783489 1.0827143
-0.034693044 -0.11578453 1.086381
-0.029541036 -0.11657592 1.087
-0.15215223 -0.10895243 1.087
-0.14490816 -0.10496821 1.0845999
-0.13738909 -0.10327624 1.0807999
-0.1107756 -0.1013076 1.08
-0.108882 -0.1013076 1.08
-0.040712401 -0.1060416 1.08
-0.035432119 -0.10527463 1.0844998
-0.027090626 -0.10087515 1.087
-0.13874477 -0.099782199 1.0840001
-0.11203799 -0.098151602 1.08
-0.1085664 -0.0959424 1.08
-0.034571674 -0.096638188 1.0812631
-0.025161928 -0.094956391 1.0850909
-0.013912874 -0.093959555 1.087
-0.051221877 -0.083469182 1.082
-0.044526856 -0.083764203 1.0829046
-0.035521761 -0.08573436 1.08336
-0.028404001 -0.088999197 1.08
-0.052452717 -0.07741902 1.0813333
-0.044934988 -0.077116922 1.0840714
-0.037640996 -0.078617275 1.087
-0.1404683 -0.1806021 1.09
-0.13341323 -0.18251838 1.0928751
-0.12515156 -0.1830108 1.0921429
-0.11804689 -0.18186998 1.09475
-0.1404683 -0.1777354 1.09
-0.13477348 -0.17712377 1.0903078
-0.12836446 -0.17805393 1.09
-0.11764252 -0.1759882 1.0910001
-0.026837192 -0.11389045 1.0903078
-0.15208369 -0.10314333 1.0945001
-0.14787284 -0.10192893 1.09175
-0.031533699 -0.10702346 1.09
-0.024768166 -0.10552641 1.0901667
-0.015050176 -0.10129008 1.09
-0.0200669 -0.097467802 1.09
-0.016244633 -0.095042139 1.09
-0.13609791 -0.18565959 1.1029999
-0.13745432 -0.19009639 1.1120001
-0.087519914 -0.25190157 1.169
-0.082283758 -0.25221542 1.1762002
-0.074792594 -0.25339028 1.1767501
-0.06669417 -0.25617689 1.177
-0.089464709 -0.24988419 1.1730001
-0.071196727 -0.24248162 1.177
-0.03405061 -0.24798475 1.177
-0.077650748 -0.25158843 1.1810001
-0.063673623 -0.25383165 1.181
-0.055231962 -0.25468385 1.1867141
-0.046444338 -0.25334442 1.186
-0.074337646 -0.24806824 1.181
-0.065190539 -0.24616584 1.1820908
-0.055432115 -0.2462732 1.1881109
-0.044590656 -0.24593066 1.1876085
-0.034795314 -0.24464454 1.1870868
-0.027309742 -0.24245217 1.189
-0.052565806 -0.23914328 1.1850001
-0.044418536 -0.23736283 1.1858001
-0.038046021 -0.23609377 1.189
-0.028143629 -0.23869967 1.189
0.0093812095 -0.19387834 1.189
0.012923444 -0.19237061 1.1861428
0.013550636 -0.18866654 1.189
-0.055430755 -0.25623652 1.1930001
-0.055430755 -0.24577789 1.1930001
-0.034513488 -0.24159443 1.1930001
-0.023008995 -0.24159443 1.1930001
-0.042357463 -0.23479632 1.1930001
-0.033816248 -0.23502043 1.1930002
-0.024935583 -0.23509909 1.1930002
-0.017038641 -0.23378645 1.1935713
-0.031637367 -0.22669087 1.193
-0.024935581 -0.22508082 1.1930002
-0.016500328 -0.22531149 1.1943336
-0.0094443299 -0.22981203 1.197
-0.023660943 -0.21690497 1.1965556
-0.016067432 -0.21434763 1.1942176
-0.0047530285 -0.21363939 1.1970003
0.0025184876 -0.21449125 1.1970001
-0.01421089 -0.20572998 1.1947143
-0.0052468493 -0.20462713 1.1970004
0.0047205864 -0.20490775 1.1968002
0.01154307 -0.2025284 1.197
-0.01154307 -0.19833092 1.197
-0.0040460671 -0.1955951 1.1958573
0.0049318345 -0.19533972 1.1933812
0.011504496 -0.19871403 1.1930001
-0.0025484699 -0.18813704 1.1969999
0.0054142936 -0.18573177 1.1958336
0.013918028 -0.1838306 1.193
0.006893605 -0.17580359 1.1967144
0.013315959 -0.17568514 1.1966923
0.0094443299 -0.16894858 1.197
0.012573153 -0.16866629 1.1950001
-0.011614431 -0.22490183 1.2044001
-0.0060243495 -0.22381744 1.2045883
-0.011591286 -0.21812694 1.202
-0.0063225199 -0.21812694 1.202
0.0031612599 -0.21180442 1.202
-0.0052687665 -0.19283687 1.202
-0.00158063 -0.18282621 1.202
0.0017562555 -0.18089432 1.202
0.0045662639 -0.17422056 1.202
0.0073762732 -0.16965428 1.202
-0.0084861331 -0.23018636 1.21
-0.15006255 -0.20966184 1.2140001
-0.091139726 -0.27713919 1.273
-0.088163733 -0.27788317 1.273
