# .PCD v0.7 - Point Cloud Data file format
VERSION 0.7
FIELDS x y z
SIZE 4 4 4
TYPE F F F
COUNT 1 1 1
WIDTH 283
HEIGHT 1
VIEWPOINT 0 0 0 1 0 0 0
POINTS 283
DATA ascii
0.058867291 -0.0014535133 0.82900006
0.064681344 -0.0014535133 0.82900017
0.058867291 0.0014535133 0.82900006
0.065525308 0.0035400083 0.82900035
0.07093145 0.005232648 0.82900012
0.045807756 -0.023124101 0.83739996
0.054713722 -0.023002094 0.83699995
0.065352261 -0.024784457 0.83760005
0.074881874 -0.023247814 0.83741665
0.084968686 -0.021994211 0.83881831
0.090469368 -0.021330176 0.83900005
0.045612387 -0.015349722 0.83758557
0.054956168 -0.015390558 0.83585691
0.065136112 -0.015370491 0.8348363
0.075298339 -0.015236227 0.83593619
0.084401846 -0.015157355 0.83835149
0.090469368 -0.01103285 0.83900005
0.038051717 -0.0023902317 0.83875012
0.044805627 -0.0050413446 0.83620816
0.054558754 -0.0052678133 0.8326596
0.064922296 -0.0065670586 0.83208561
0.075233862 -0.0051160655 0.8331632
0.084984146 -0.005132799 0.83566666
0.092319131 -0.0040096347 0.83818185
0.038056746 0.005142936 0.83806664
0.044693884 0.005129627 0.8358162
0.054575246 0.0052681132 0.83291495
0.063422747 0.0077771046 0.83155566
0.076169036 0.005070392 0.83233339
0.08491677 0.0051275385 0.83499998
0.093202561 0.0050126249 0.83788246
0.038549162 0.013340739 0.8387143
0.045023371 0.014840276 0.83751184
0.054861322 0.015365696 0.83442861
0.065114819 0.015366154 0.83455068
0.074944414 0.014743373 0.83548784
0.084418736 0.01410729 0.83829045
0.09194041 0.012340447 0.83900011
0.057587601 0.021924306 0.83757156
0.064911284 0.02212644 0.8372857
0.072081283 0.021330176 0.83900005
0.067668147 0.038492385 0.83900005
0.072522603 0.038394317 0.83900005
0.066687442 0.041557074 0.83900005
0.072326459 0.042170007 0.83900005
0.037687022 -0.021428363 0.84300005
0.040550217 -0.021381022 0.84100002
0.09550494 -0.020535041 0.84666675
0.028431877 -0.012355214 0.8490001
0.034824375 -0.014821882 0.84533346
0.040746592 -0.015856927 0.84125006
0.088578522 -0.018010616 0.84100002
0.094729707 -0.015191995 0.84467578
0.10193391 -0.012649174 0.84871429
0.027864845 -0.0050311899 0.84829414
0.034073524 -0.0057198219 0.84373158
0.040550217 -0.0095845964 0.84100002
0.096935593 -0.0059057381 0.84191674
0.10486326 -0.0050525721 0.84626824
0.11037672 -0.0014798134 0.84500003
0.026973875 0.0055473717 0.84628016
0.033156618 0.0051708375 0.84276462
0.098758064 0.005461575 0.84193337
0.10536613 0.0051955441 0.84638107
0.11198749 0.0057615624 0.84737509
0.027016848 0.014179031 0.84670007
0.03422581 0.015552761 0.84269238
0.04325356 0.019660709 0.84100002
0.076676771 0.019906471 0.84100002
0.085943393 0.018770814 0.84200007
0.095328696 0.015575216 0.84292579
0.1038783 0.014465719 0.84741187
0.029027309 0.022328701 0.84900004
0.034959819 0.024512649 0.84592682
0.045148667 0.025170479 0.84428567
0.054816883 0.025671426 0.843647
0.064848416 0.026791884 0.84299999
0.074936494 0.025434909 0.84371799
0.085089885 0.024942294 0.84578043
0.094160832 0.023321206 0.84706688
0.10143209 0.021080324 0.84866667
0.037214503 0.030515891 0.84900004
0.046553865 0.031681854 0.84833336
0.055477757 0.034889426 0.84525013
0.064509757 0.034119312 0.84226328
0.074985199 0.034196712 0.8433255
0.082600489 0.03424225 0.84730017
0.055777662 0.044734251 0.84420925
0.064428538 0.046171024 0.84239393
0.07526958 0.04573106 0.84431708
0.08352419 0.045499418 0.84713346
0.049272001 0.053737737 0.8490001
0.053831279 0.051607177 0.847
0.064895891 0.052485902 0.84573698
0.07420329 0.052450091 0.8468824
0.082239926 0.05190305 0.84820002
0.10354467 -0.02046999 0.85220003
0.10500629 -0.015473856 0.85207134
0.023939967 -0.0042827935 0.85205257
0.10444607 -0.0096985633 0.85100001
0.022466119 0.0052438257 0.85434997
0.11339858 0.0089525199 0.85100001
0.0188045 0.01579578 0.85799998
0.022374926 0.015577408 0.85345459
0.10827162 0.016802412 0.85175002
0.11180448 0.015360951 0.8545
0.02617445 0.02405482 0.85520834
0.031733796 0.028748311 0.85175002
0.096846245 0.027763154 0.85257143
0.10509443 0.024999719 0.85460609
0.11132264 0.02030886 0.85800004
0.028692249 0.031999033 0.85679996
0.035909992 0.034366824 0.85456675
0.045033496 0.036302302 0.85426658
0.050161112 0.038931012 0.85400003
0.087218456 0.035788801 0.85363632
0.093368717 0.032047629 0.85623074
0.10003994 0.03083938 0.85800004
0.038308579 0.045176141 0.85685718
0.045796484 0.045991112 0.85423702
0.050819054 0.045584913 0.85250002
0.087948076 0.042473037 0.85500002
0.090589471 0.044171728 0.85400003
0.044912226 0.052613806 0.85163146
0.051476989 0.052969079 0.85100001
0.079826638 0.052969076 0.85100001
0.06780228 -0.052565809 0.86900002
0.074057251 -0.053207342 0.8690002
0.068505496 -0.045885205 0.86900014
0.075079449 -0.044638753 0.86813051
0.084201381 -0.042441696 0.86857909
0.067992732 -0.037138887 0.86900002
0.075862303 -0.035410296 0.86840534
0.085205659 -0.034994006 0.86777776
0.092661768 -0.034282044 0.8690002
0.077959917 -0.029203229 0.86900002
0.085717842 -0.028499303 0.86857158
0.094042867 -0.026917756 0.8690002
0.10284615 -0.022092877 0.86900002
0.016079118 0.0062687974 0.86384004
0.020356201 0.0045236 0.86000001
0.016055688 0.014939739 0.86363161
0.017581258 0.022647368 0.86583346
0.022434276 0.026186828 0.86271441
0.11100002 0.023409337 0.86133337
0.025401417 0.034931306 0.86253345
0.033474371 0.038116388 0.86030775
0.042220265 0.039958466 0.86000001
0.095694087 0.036327533 0.86175007
0.10190947 0.033285916 0.86109102
0.035508506 0.041959371 0.86186677
0.042597234 0.041843303 0.86000001
0.089718066 0.0429742 0.86000001
0.095051706 0.041523445 0.86342865
0.10073952 0.040144321 0.86400002
0.075175337 -0.071583338 0.87800002
0.059267927 -0.060807355 0.87800002
0.065139383 -0.062808715 0.87668014
0.075072177 -0.064410359 0.87600005
0.084252268 -0.064409718 0.8768183
0.09173584 -0.062626667 0.8780002
0.058626503 -0.054649651 0.8780002
0.064226173 -0.055742372 0.87318182
0.075536132 -0.056842294 0.87135315
0.084808722 -0.054991663 0.87265825
0.094253123 -0.054508574 0.87566668
0.10095759 -0.05259189 0.87575006
0.057728499 -0.045797944 0.87800002
0.063836835 -0.044977132 0.87380004
0.078648396 -0.049632482 0.87100005
0.085925847 -0.047254685 0.87108022
0.094767563 -0.045093182 0.87176186
0.10271484 -0.04436503 0.8725
0.066863805 -0.035150535 0.87166685
0.071961537 -0.032237314 0.87140006
0.096704751 -0.035977934 0.87100023
0.1042066 -0.035062946 0.87310803
0.11006901 -0.033610817 0.87800002
0.076739453 -0.029397704 0.87100005
0.084451579 -0.026419753 0.87100017
0.096719712 -0.026216133 0.87100023
0.10428003 -0.026515655 0.87246668
0.11045386 -0.02655511 0.87800002
0.012980803 0.0022907299 0.87100005
0.017562263 0.026979707 0.87100011
0.019089416 0.031306643 0.87100005
0.056734987 -0.072200276 0.88828576
0.064792916 -0.074643768 0.88615376
0.073317245 -0.07254789 0.88034999
0.081004001 -0.070203468 0.88000005
0.049099471 -0.06312789 0.88900006
0.054802213 -0.065075316 0.8841666
0.064517133 -0.067723051 0.88015395
0.070717774 -0.068146221 0.88000005
0.087947205 -0.065574668 0.88000005
0.092730299 -0.065266088 0.88
0.05415434 -0.055158425 0.88132238
0.097486705 -0.057874996 0.88022226
0.057419159 -0.047720723 0.88000005
-0.037409119 0.036629763 0.88900006
0.054714017 -0.081233934 0.89714295
0.061915457 -0.080725223 0.89400005
0.047101192 -0.073760979 0.89700001
0.054012343 -0.076487087 0.89404184
0.06170769 -0.078892112 0.89100003
0.047843676 -0.064937845 0.89473683
0.048717827 -0.05736059 0.8963334
0.051171035 -0.055894513 0.89800006
-0.056524314 0.0083448142 0.89800006
-0.044085812 0.008659713 0.89800006
-0.052330252 0.014622527 0.8959375
-0.044696655 0.015611511 0.89600009
-0.038489174 0.019637333 0.89600003
-0.050772149 0.021871079 0.89100003
-0.044450395 0.024930527 0.89455295
-0.03704657 0.025627498 0.89488888
-0.042849366 0.032281205 0.89519995
-0.037436631 0.033216499 0.89399999
0.043458119 -0.072431371 0.90133333
0.037753854 -0.06590078 0.90738463
0.042799961 -0.064996086 0.9041667
0.043870654 -0.058048487 0.90528572
-0.059700999 -0.010348173 0.90800005
-0.061293025 -0.0015920267 0.90800005
-0.05514985 -0.0043956996 0.90684247
-0.048503336 -0.0015911501 0.90700006
-0.060904883 0.0031606024 0.90225005
-0.055119827 0.0041549462 0.90193558
-0.047723707 0.0047457553 0.90322739
-0.053711616 0.010268397 0.90100002
-0.048498429 0.011216248 0.90100002
0.03603743 -0.061666481 0.91355556
0.037840929 -0.057605863 0.91411114
0.042751819 -0.055305686 0.91433334
-0.057738364 -0.01122988 0.91475004
-0.062303714 -0.0057913698 0.911125
-0.056641433 -0.0087754335 0.91000003
0.047349278 -0.052743699 0.92325002
0.052647736 -0.052940384 0.92390919
0.047167625 -0.04879275 0.927625
0.054635089 -0.048618007 0.92740011
0.047869254 -0.045292359 0.93457144
0.055051178 -0.043524161 0.93465626
0.063467048 -0.042239986 0.93562508
0.055506144 -0.034468632 0.9379999
0.064440526 -0.034276657 0.93776917
0.071541257 -0.033714846 0.93800002
0.064754985 -0.028688917 0.93500012
-0.03906076 -0.065655321 0.94800007
-0.035808712 -0.053442065 0.94800001
-0.040722921 -0.045709401 0.94800007
-0.036048099 -0.047059905 0.94800001
0.048619933 -0.041203335 0.94000006
0.050268065 -0.040379267 0.94000006
0.052740268 -0.035640884 0.94000006
0.063617952 -0.035599679 0.94000018
0.070869729 -0.035434868 0.94000006
-0.031780921 -0.071088903 0.95400006
-0.024639944 -0.072578877 0.95600015
-0.014924069 -0.073763631 0.95756513
-0.0050771278 -0.074199468 0.95875978
-0.041963402 -0.06197245 0.95100003
-0.034756862 -0.064887799 0.95296991
-0.025100961 -0.065262444 0.95438904
-0.015097808 -0.065439664 0.95699966
-0.0051639932 -0.065685391 0.95882827
0.0011770127 -0.067089722 0.95899999
-0.044476435 -0.054923311 0.95254862
-0.033412531 -0.057526 0.95100015
-0.025091367 -0.055204634 0.95411122
-0.015811741 -0.056003451 0.95641369
-0.0075620017 -0.058677178 0.95814288
-0.043968532 -0.048611946 0.95422226
-0.03084727 -0.048355177 0.95100003
-0.02575927 -0.048674989 0.95400012
0.017237311 -0.084208518 0.96700007
0.0033206786 -0.07421159 0.96446157
0.0016893366 -0.067539275 0.96300006
-0.011806946 -0.054817967 0.96200007
0.0074466257 -0.081912227 0.97075003
0.01409179 -0.084307775 0.97000021
0.0073131532 -0.078403808 0.97000009
0.011905134 -0.079084098 0.97000003
