# .PCD v0.7 - Point Cloud Data file format
VERSION 0.7
FIELDS x y z
SIZE 4 4 4
TYPE F F F
COUNT 1 1 1
WIDTH 255
HEIGHT 1
VIEWPOINT 0 0 0 1 0 0 0
POINTS 255
DATA ascii
-0.17402972 -0.091638841 0.95900005
-0.17381538 -0.085061461 0.95644426
-0.1654387 -0.084217265 0.95715994
-0.15657555 -0.082589798 0.95509106
-0.1746143 -0.076198004 0.95604163
-0.16549414 -0.0752258 0.95341694
-0.15574601 -0.075020947 0.95394146
-0.14658253 -0.072650068 0.95400023
-0.18243696 -0.061372802 0.95900005
-0.17389625 -0.06762366 0.95825005
-0.16495752 -0.065309972 0.95513344
-0.15546153 -0.065145992 0.95437849
-0.14486401 -0.065472402 0.95599997
-0.13713089 -0.065171547 0.95784605
-0.12778994 -0.061372802 0.95900005
-0.18257377 -0.055593155 0.95794994
-0.1747008 -0.054982062 0.95681798
-0.16487348 -0.055364348 0.95730281
-0.15474033 -0.055507623 0.95710522
-0.14462857 -0.055578828 0.95663613
-0.13655666 -0.0539984 0.95831811
-0.1261085 -0.054647017 0.95900005
-0.18159623 -0.049602676 0.95900005
-0.17347771 -0.048404563 0.95749998
-0.16432904 -0.045672569 0.9576295
-0.15466864 -0.045451578 0.95605129
-0.14533912 -0.046271477 0.95830756
-0.13476042 -0.047786437 0.95829415
-0.16225961 -0.039513998 0.95900005
-0.15418111 -0.038715992 0.95818174
-0.14438127 -0.034993943 0.95863974
-0.13661508 -0.033586483 0.95771426
-0.14174595 -0.028752739 0.95899999
-0.13508287 -0.027311575 0.9577648
-0.12694921 -0.025101598 0.95900005
-0.17216155 -0.092417143 0.96360004
-0.16605879 -0.09125486 0.96233326
-0.15770708 -0.09023881 0.96200007
-0.18232591 -0.080876298 0.96433336
-0.17895958 -0.086865403 0.96200007
-0.16242984 -0.087877415 0.96200007
-0.15855041 -0.087708756 0.96200007
-0.18373886 -0.074214585 0.96489483
-0.17850979 -0.072809502 0.96200007
-0.19162057 -0.060717057 0.96460009
-0.18469216 -0.065298647 0.96336848
-0.17561355 -0.065552086 0.9625001
-0.13371836 -0.062689267 0.96200001
-0.19168909 -0.055732112 0.9632501
-0.18799819 -0.055354215 0.96230769
-0.17288743 -0.059878085 0.96200007
-0.13320023 -0.057099979 0.96200001
-0.12573296 -0.054528747 0.96257144
-0.11891282 -0.051444553 0.96200007
-0.18160194 -0.045610338 0.96350014
-0.17535928 -0.044049866 0.96260005
-0.16838954 -0.042729903 0.96200007
-0.14286408 -0.043179691 0.96200001
-0.13462581 -0.043366116 0.96200001
-0.12482347 -0.045543969 0.96205562
-0.1160269 -0.044645332 0.96384013
-0.10935803 -0.041539095 0.96700007
-0.17333277 -0.037573796 0.96230769
-0.1656521 -0.035061926 0.96272743
-0.15551379 -0.033937659 0.96304011
-0.14544012 -0.036110852 0.96199995
-0.13354176 -0.036510218 0.96245456
-0.12506706 -0.035488877 0.96394467
-0.11528999 -0.035789989 0.96532393
-0.10852967 -0.036051944 0.96633339
-0.16235352 -0.027682379 0.96528572
-0.15437374 -0.026048817 0.96604037
-0.14558628 -0.024880795 0.96326679
-0.13431548 -0.023398874 0.9623158
-0.12539263 -0.024727009 0.96304756
-0.11902255 -0.02397815 0.96516675
-0.15174487 -0.019497944 0.96700007
-0.14395782 -0.018099742 0.96645468
-0.13556546 -0.017871108 0.96541166
-0.12544407 -0.016517662 0.96344
-0.11891282 -0.018553773 0.96200007
-0.18519408 -0.10031346 0.97800004
-0.1842963 -0.093923874 0.97778565
-0.17919242 -0.093454421 0.97800004
-0.20086625 -0.081201248 0.97500002
-0.19413875 -0.083538033 0.97600001
-0.18631622 -0.084957257 0.97305894
-0.20059156 -0.076539725 0.97366667
-0.19478497 -0.075179666 0.9745
-0.18793103 -0.075682633 0.97000009
-0.19401518 -0.067260019 0.9733637
-0.18963176 -0.067178965 0.97000003
-0.1122484 -0.031463567 0.97000003
-0.1096973 -0.031463567 0.97000003
-0.16071931 -0.022109533 0.97000003
-0.15731783 -0.022109533 0.97000009
-0.1224528 -0.027211733 0.97000015
-0.11535237 -0.027401587 0.972826
-0.15380147 -0.017025469 0.97131264
-0.14549939 -0.013689315 0.97328556
-0.13470748 -0.012864742 0.97116673
-0.12794951 -0.011088956 0.97300005
-0.14457583 -0.0094099641 0.97580004
-0.13562647 -0.0093829632 0.97300005
-0.17297116 -0.13330483 0.98899996
-0.16675751 -0.13496663 0.98900002
-0.21133891 -0.12039439 0.98800004
-0.2053111 -0.1227705 0.98900002
-0.19247918 -0.12225029 0.98900002
-0.18527992 -0.12207662 0.98841196
-0.17439555 -0.12398434 0.9890002
-0.16690201 -0.12430947 0.98900014
-0.211988 -0.11769372 0.98860008
-0.20488332 -0.1152587 0.98796296
-0.19503598 -0.11468144 0.98772001
-0.18507461 -0.11502401 0.98649985
-0.17480704 -0.11509804 0.9871332
-0.16498825 -0.11563426 0.98773068
-0.15617378 -0.11752172 0.98859996
-0.21112019 -0.10447632 0.98900002
-0.20485558 -0.10545167 0.98596656
-0.19516817 -0.10536479 0.98442852
-0.18461514 -0.10573295 0.98361295
-0.17554547 -0.10617878 0.98399997
-0.16786239 -0.10988929 0.98700005
-0.21155369 -0.097973637 0.98900002
-0.20337924 -0.096107416 0.98766685
-0.19475588 -0.095117345 0.98423523
-0.18518712 -0.095605575 0.98121423
-0.17848933 -0.09728194 0.98200005
-0.1961675 -0.088161811 0.98400009
-0.16010913 -0.16302551 0.99799997
-0.15835932 -0.16302551 0.99799997
-0.18501051 -0.15257141 0.99800009
-0.17480768 -0.15275985 0.99800009
-0.16448371 -0.15343791 0.99800009
-0.15660949 -0.15369311 0.99799997
-0.19393656 -0.14325964 0.99676466
-0.18553296 -0.14463317 0.99779278
-0.1746349 -0.14494628 0.99599999
-0.16442226 -0.14495032 0.99688578
-0.15484379 -0.14522152 0.99789977
-0.14702711 -0.14477733 0.99799991
-0.13852794 -0.14494397 0.99799997
-0.20197773 -0.13368215 0.99449998
-0.1951731 -0.1350569 0.9939003
-0.18507345 -0.13531511 0.99580026
-0.17557245 -0.1354299 0.99288225
-0.16483945 -0.13511501 0.99344844
-0.15508579 -0.13508213 0.99675858
-0.14592952 -0.13482717 0.99799973
-0.13648647 -0.13823631 0.99800003
-0.20394747 -0.12526596 0.99263149
-0.19569333 -0.12611425 0.99211121
-0.1847439 -0.12775882 0.99278945
-0.17723534 -0.12853476 0.99199998
-0.16349483 -0.12566492 0.99199998
-0.15527377 -0.12541167 0.99341202
-0.1463497 -0.12661625 0.9951874
-0.2121954 -0.11305493 0.99200004
-0.20088992 -0.1191425 0.99200004
-0.19828096 -0.1191425 0.99200004
-0.21378073 -0.10410599 0.99407679
-0.20958646 -0.10001013 0.99200004
-0.21240704 -0.096707731 0.99380004
-0.20705606 -0.094175145 0.99237502
-0.20351803 -0.089129962 0.99350005
-0.17163379 -0.16107172 1.0040001
-0.16553015 -0.16357188 1.0043334
-0.15569754 -0.16349168 1.00625
-0.14919376 -0.16508423 1.0070001
-0.18603918 -0.15005991 1.001
-0.17112094 -0.15532517 1.001
-0.16475296 -0.15655871 1.0014002
-0.15503487 -0.1553463 1.0030868
-0.14624014 -0.15329526 1.0053846
-0.18551266 -0.14725177 1.001
-0.14289331 -0.14537968 1.0010002
-0.13865185 -0.14216202 1.001
-0.14157699 -0.1354342 1.001
-0.13913128 -0.1351705 1.0028751
-0.14128448 -0.12899888 1.001
-0.17147893 -0.16439545 1.01
-0.15229453 -0.16203432 1.0100001
-0.14875281 -0.1626246 1.0100001
-0.15229453 -0.15849257 1.01
-0.14875281 -0.15849257 1.01
-0.15436906 -0.12491376 1.0470003
-0.14657475 -0.1230476 1.0444615
-0.18082039 -0.11473375 1.0470001
-0.17898464 -0.11473375 1.0470001
-0.15144855 -0.11840523 1.0470001
-0.14490561 -0.11752533 1.0453124
-0.16901919 -0.10503055 1.0470001
-0.01009657 -0.063333027 1.0470001
-0.024315337 -0.041977759 1.046625
-0.018663356 -0.043751802 1.0470001
-0.03120758 -0.035796929 1.0470001
-0.02513916 -0.037806045 1.0439999
-0.16345012 -0.12242854 1.0553335
-0.15863143 -0.12215017 1.0508001
-0.15540886 -0.11490465 1.0532416
-0.14755155 -0.11378454 1.05525
-0.011280771 -0.072297826 1.0546
-0.00829239 -0.073712759 1.051
-0.022926038 -0.062526606 1.0566251
-0.014555525 -0.064197123 1.0545186
-0.024455054 -0.054790746 1.0544093
-0.016667083 -0.055225879 1.0529412
-0.03135661 -0.044271663 1.052
-0.025076484 -0.046523262 1.0502353
-0.018870251 -0.04740575 1.0500001
-0.030990167 -0.038354166 1.0500001
-0.034609921 -0.15247074 1.067
-0.034317531 -0.14543939 1.0685
-0.028309176 -0.14309202 1.0645
-0.024797224 -0.13474929 1.0665199
-0.019175768 -0.13189188 1.067
-0.025245044 -0.12465306 1.0685
-0.016727872 -0.12342297 1.0665555
-0.015042213 -0.11526993 1.0668333
-0.007795027 -0.1119366 1.067
-0.023385083 -0.10195896 1.067
-0.014985595 -0.10491362 1.0685
-0.0061844452 -0.10238634 1.0685
-0.023512948 -0.094985962 1.0667144
-0.015401639 -0.094039537 1.0659628
-0.0065439274 -0.093152165 1.0661111
-0.02343837 -0.08403457 1.0633572
-0.014894534 -0.084728047 1.0620332
-0.0072032511 -0.084651656 1.0631819
-0.024202835 -0.075391673 1.0617
-0.015577031 -0.07580889 1.0602399
-0.0074459687 -0.079099439 1.0615001
-0.025234301 -0.066281915 1.061125
-0.017656066 -0.06876573 1.0600001
-0.028807266 -0.0529682 1.0600001
-0.044521686 -0.15379241 1.0718571
-0.036583301 -0.15243042 1.0700001
-0.043451499 -0.14571373 1.0710908
-0.040420249 -0.13723889 1.0722501
-0.034748085 -0.13522562 1.0711999
-0.029079033 -0.13320073 1.0700001
-0.015946567 -0.13085565 1.0700001
-0.034179874 -0.12587596 1.0739501
-0.015321211 -0.12788521 1.0700001
-0.032144897 -0.11614647 1.0755454
-0.025578475 -0.11513471 1.0716295
-0.015571353 -0.11350204 1.0700001
-0.025081843 -0.10664223 1.0702
-0.02628948 -0.093577445 1.0710001
-0.010943722 -0.097868145 1.0700001
-0.0084423004 -0.09661743 1.0700001
-0.02626493 -0.087237097 1.0700001
-0.035978399 -0.1221372 1.08
