# .PCD v0.7 - Point Cloud Data file format
VERSION 0.7
FIELDS x y z
SIZE 4 4 4
TYPE F F F
COUNT 1 1 1
WIDTH 232
HEIGHT 1
VIEWPOINT 0 0 0 1 0 0 0
POINTS 232
DATA ascii
-0.15499993 0.027602727 1.0380001
-0.14478852 0.028436312 1.0368572
-0.13740698 0.028209379 1.0380001
-0.12457259 0.023823943 1.0372001
-0.11738742 0.0227495 1.0380001
-0.15305863 0.034761235 1.0380001
-0.14439489 0.034815561 1.0354288
-0.13566028 0.03501958 1.0375715
-0.12721522 0.03512523 1.0380001
-0.15303093 0.041611861 1.0375001
-0.14415318 0.042049874 1.0365456
-0.13504148 0.043714531 1.0378096
-0.14286686 0.058108721 1.0380001
-0.13446294 0.054866444 1.0380002
-0.12770052 0.054295473 1.0380001
-0.14438349 0.063597485 1.0380001
-0.1358017 0.063355334 1.0373335
-0.16062725 0.0275361 1.0470001
-0.15343222 0.026712909 1.04175
-0.14405759 0.025735645 1.04225
-0.13475914 0.026480526 1.0416429
-0.12511544 0.026941938 1.0417501
-0.1153727 0.026555253 1.0445
-0.10647291 0.026618229 1.0470001
-0.1632906 0.035381552 1.0449374
-0.15856597 0.035135485 1.041
-0.13141583 0.033082113 1.041
-0.12464453 0.034604065 1.0420802
-0.11550525 0.034926545 1.0445143
-0.10739079 0.039468411 1.0470001
-0.16351913 0.045350194 1.0444738
-0.15523632 0.045721997 1.0419474
-0.14557672 0.046742052 1.0424999
-0.13415366 0.046745915 1.041
-0.12507039 0.044732518 1.0413603
-0.11591121 0.044812772 1.044778
-0.10339713 0.04506987 1.0468335
-0.097043879 0.044975631 1.0470001
-0.16354421 0.054920342 1.044778
-0.15467574 0.054914754 1.0440003
-0.14588119 0.053764172 1.0425653
-0.13871673 0.050193548 1.041
-0.12375716 0.054903001 1.0412859
-0.11628626 0.054939728 1.0445002
-0.10127165 0.051094759 1.0470001
-0.098212086 0.050482851 1.0470001
-0.15187065 0.06299945 1.0415
-0.14510499 0.066985577 1.041
-0.1326603 0.066454597 1.0410001
-0.12518421 0.064878508 1.0423201
-0.11583757 0.065191761 1.0441114
-0.10922653 0.067004509 1.0470001
-0.091786996 0.06884025 1.0470001
-0.13454027 0.070473477 1.044
-0.18069415 0.028725736 1.057
-0.17393555 0.026320415 1.0561429
-0.16616252 0.028617028 1.053
-0.10411263 0.026718751 1.0510001
-0.095629439 0.026321918 1.0561429
-0.086177208 0.022239279 1.057
-0.18334168 0.034373805 1.0569998
-0.17568234 0.033831656 1.0565714
-0.1668779 0.032269225 1.0516667
-0.1113805 0.0303765 1.0500001
-0.10494628 0.034876347 1.050914
-0.095437765 0.035868816 1.0541819
-0.087335505 0.037992101 1.057
-0.075057566 0.039845377 1.057
-0.1113805 0.045718167 1.0500001
-0.106778 0.044951081 1.0500001
-0.092863798 0.045115769 1.0502858
-0.085262582 0.045653086 1.0545385
-0.076608531 0.045251913 1.0567693
-0.11138051 0.055229995 1.0500001
-0.10582984 0.054813951 1.0517778
-0.094790913 0.054439396 1.052435
-0.085114717 0.054318387 1.054074
-0.077725701 0.052744649 1.0555
-0.1113805 0.063514501 1.0500001
-0.10492235 0.063559383 1.0532002
-0.094860978 0.064184725 1.0532173
-0.087067902 0.06314981 1.0550001
-0.22281258 0.017169664 1.0685
-0.21467507 0.015621236 1.067
-0.20410502 0.018520985 1.0670002
-0.19468051 0.015369166 1.0640368
-0.18591192 0.015927665 1.06396
-0.17676836 0.017083701 1.0631112
-0.22269607 0.025385199 1.0685
-0.21514276 0.025255889 1.067
-0.20436287 0.02515153 1.0661304
-0.19451277 0.02512688 1.0615999
-0.18512188 0.024940362 1.0602499
-0.17764169 0.023250341 1.0609001
-0.092152275 0.025864586 1.0600002
-0.084702745 0.02594074 1.0606
-0.078420982 0.02738356 1.0624001
-0.22246996 0.036060371 1.0685
-0.21411383 0.035264704 1.067
-0.20439269 0.034590356 1.0641998
-0.19460025 0.035426836 1.0607741
-0.18740211 0.037273921 1.0600001
-0.17439239 0.039338958 1.0600001
-0.0919974 0.031409211 1.0600001
-0.084275052 0.034535661 1.06012
-0.077498727 0.035155211 1.0635883
-0.2216906 0.04209315 1.067
-0.2150694 0.042264786 1.0661112
-0.20551533 0.044914193 1.0622307
-0.19528945 0.045366503 1.0602902
-0.18522421 0.045611456 1.0617199
-0.17885908 0.044586878 1.0620002
-0.080846198 0.041816998 1.0600001
-0.074031584 0.04243651 1.0600001
-0.20320366 0.052663557 1.0632501
-0.19502136 0.054005094 1.0629523
-0.18648501 0.053827222 1.0646667
-0.17934847 0.051109668 1.0600001
-0.082085222 0.061641354 1.0600001
-0.21686016 -0.014536262 1.074857
-0.19490364 -0.010925396 1.077
-0.18634062 -0.010914376 1.0758572
-0.17844813 -0.01227421 1.077
-0.21413393 -0.0037281958 1.0739999
-0.20567276 -0.0028315536 1.0766363
-0.19518524 -0.0047162203 1.0755599
-0.18531492 -0.0047069271 1.0730399
-0.1796667 -0.0037626536 1.0730001
-0.22184488 0.0063317255 1.0700001
-0.21460368 0.0045549981 1.0710739
-0.20521066 0.0046319021 1.0737692
-0.19485979 0.0049016713 1.0714813
-0.18501824 0.0046972148 1.0713199
-0.1786637 0.0051193438 1.072
-0.21393077 0.01369818 1.0703
-0.20592022 0.013232057 1.0705999
-0.19855039 0.010943722 1.0700001
-0.18310156 0.012718999 1.0710908
-0.17716272 0.01364444 1.0735
-0.2110575 0.025326898 1.0700001
-0.20918143 0.026264932 1.0700001
-0.21606034 0.033143844 1.0700001
-0.22325194 0.040335432 1.0700001
-0.19229683 0.057220034 1.0700001
-0.18640062 0.056952022 1.0700001
-0.212209 -0.020934362 1.0855
-0.20445785 -0.021282248 1.087
-0.19476379 -0.023101438 1.0856363
-0.1849001 -0.022622187 1.0853332
-0.17819916 -0.020011669 1.087
-0.21292499 -0.014508657 1.0813999
-0.20507477 -0.014637039 1.0839999
-0.19515328 -0.016372737 1.0823749
-0.18488973 -0.015648538 1.0829998
-0.17869651 -0.016134465 1.0823334
-0.2206044 -0.0075743999 1.08
-0.21643849 -0.0081424806 1.08
-0.20488752 -0.0062263375 1.0805714
-0.18083879 -0.0085212002 1.08
-0.20496906 -0.023889167 1.09
-0.19780231 -0.025800301 1.09
-0.18057404 -0.00099764671 1.138
-0.18398024 0.004984315 1.1372943
-0.17993934 0.0049707 1.1340001
-0.035255145 -0.024606656 1.149
-0.035132416 -0.019071883 1.1450001
-0.18305063 -0.0016671278 1.141
-0.17704897 -0.0010002767 1.141
-0.072015539 -0.086215779 1.1570001
-0.069310732 -0.084863387 1.1570001
-0.05172947 -0.05172947 1.1570001
-0.047672257 -0.05172947 1.1570001
-0.043209322 -0.032254845 1.1570001
-0.036421996 -0.032374427 1.1539999
-0.043774989 -0.027794911 1.1552222
-0.038612433 -0.027695829 1.153
-0.13469896 -0.10102355 1.164
-0.12890506 -0.10128392 1.1670001
-0.143278 -0.095298685 1.1659414
-0.13505697 -0.095176995 1.1650003
-0.12588143 -0.094882227 1.1658337
-0.11990433 -0.097358219 1.169
-0.10214072 -0.096675009 1.169
-0.094098188 -0.095462278 1.1681111
-0.081636079 -0.091838717 1.164
-0.078371368 -0.09058509 1.161
-0.13387257 -0.087464549 1.1676667
-0.12538974 -0.087000892 1.1655715
-0.091721699 -0.087109983 1.169
-0.084821269 -0.08517345 1.1681306
-0.075378343 -0.083861426 1.1643686
-0.067514725 -0.081085533 1.161
-0.09243907 -0.076041885 1.169
-0.084403895 -0.075593218 1.1684002
-0.074577719 -0.074576303 1.1653204
-0.064807191 -0.074091882 1.1650004
-0.057534173 -0.071151726 1.1650001
-0.083212614 -0.067864813 1.1670001
-0.07413172 -0.064978495 1.1659527
-0.064334691 -0.064334691 1.1648403
-0.055387117 -0.063884459 1.1627778
-0.049194146 -0.060729329 1.161
-0.071737632 -0.058414929 1.169
-0.063532442 -0.055901937 1.1650002
-0.055165302 -0.055165302 1.161
-0.048418675 -0.055688746 1.1610001
-0.060050789 -0.04885488 1.161
-0.054580063 -0.046692036 1.161
-0.046001624 -0.045664985 1.1618334
-0.039320692 -0.043405961 1.1650001
-0.051685929 -0.037743133 1.1636667
-0.046027638 -0.036414981 1.1609999
-0.037913423 -0.037404515 1.1610001
-0.045959249 -0.025532916 1.1650001
-0.12545626 -0.10180467 1.1730001
-0.14088121 -0.091521367 1.1730001
-0.12031461 -0.093578033 1.1730001
-0.11411454 -0.094335258 1.173889
-0.10550003 -0.094102278 1.1736156
-0.097107664 -0.093198612 1.1734002
-0.087408058 -0.092549704 1.1730002
-0.14136162 -0.089769788 1.177
-0.12031461 -0.087408043 1.1730001
-0.11408475 -0.085604735 1.1741668
-0.10478241 -0.085558519 1.1745239
-0.09618216 -0.084866673 1.1734002
-0.087408051 -0.083294727 1.1730001
-0.11143836 -0.079451419 1.177
-0.10470594 -0.078490838 1.1758573
-0.096091725 -0.077581793 1.1730002
-0.087606758 -0.071801633 1.1756667
-0.17173111 0.027764909 1.1730001
