# .PCD v0.7 - Point Cloud Data file format
VERSION 0.7
FIELDS x y z
SIZE 4 4 4
TYPE F F F
COUNT 1 1 1
WIDTH 238
HEIGHT 1
VIEWPOINT 0 0 0 1 0 0 0
POINTS 238
DATA ascii
-0.024553329 -0.12093405 1.0372001
-0.019035939 -0.12056095 1.034
-0.031606637 -0.11435414 1.0380001
-0.024551926 -0.11456633 1.0372002
-0.017166838 -0.11441079 1.0367224
-0.030939318 -0.10828762 1.0380001
-0.024309468 -0.10659765 1.0380001
-0.017455069 -0.10580585 1.0380001
-0.033870194 -0.12135978 1.0439999
-0.042731952 -0.11636552 1.0470001
-0.036565468 -0.11476532 1.0426668
-0.011868753 -0.11321712 1.0415001
-0.0067767212 -0.11321914 1.0448999
-0.035124328 -0.10452918 1.0444841
-0.02498715 -0.10251477 1.0415454
-0.012950672 -0.10454418 1.0436844
-0.0054706391 -0.10537022 1.0484999
-0.03227492 -0.095495135 1.0451666
-0.024675274 -0.095049664 1.0425003
-0.016683932 -0.094980612 1.0458001
-0.0049564978 -0.093806311 1.0470002
0.0020193141 -0.094173454 1.0470001
-0.03011613 -0.088523172 1.041
-0.023901718 -0.085755438 1.0424212
-0.017405516 -0.085197449 1.0449998
-0.0042222021 -0.088666238 1.0470001
0.0020193139 -0.087564804 1.0470001
-0.02111101 -0.078936815 1.0470001
-0.017439529 -0.078936823 1.0470001
-0.060694702 -0.14316536 1.057
-0.057636797 -0.14399934 1.057
-0.10100339 -0.1389955 1.057
-0.071351022 -0.13806887 1.057
-0.064371556 -0.1350887 1.056222
-0.056910127 -0.13618912 1.0567858
-0.071626149 -0.12503676 1.0565001
-0.065036096 -0.1248304 1.054778
-0.057451472 -0.12880249 1.057
-0.042342998 -0.1205855 1.0500001
-0.0395815 -0.12150601 1.0500001
-0.071351022 -0.11953613 1.057
-0.064439468 -0.11832239 1.0561001
-0.050820366 -0.11550083 1.054
-0.046131767 -0.1130768 1.0523572
-0.0395815 -0.1187445 1.0500001
-0.0022354999 -0.1134845 1.0500001
0.0035952101 -0.11297691 1.0534444
0.01469381 -0.11185827 1.057
0.021312643 -0.11212303 1.057
-0.051891655 -0.10100339 1.057
-0.04426023 -0.10463221 1.0536819
-0.0395815 -0.1003345 1.0500001
-0.011966499 -0.1003345 1.0500001
0.0046158237 -0.10515045 1.0521333
0.01405237 -0.10439215 1.0555
0.021312643 -0.10193003 1.057
-0.051185936 -0.096838355 1.052
-0.044728409 -0.096523985 1.0526
-0.03835417 -0.095629722 1.0500001
-0.01224973 -0.095236339 1.0500001
-0.0031296997 -0.097757101 1.0500001
0.0052493047 -0.094941065 1.0504
0.014716481 -0.095146619 1.0537142
0.024819747 -0.093897752 1.0563
0.031196767 -0.092354797 1.057
-0.011969034 -0.084702939 1.0502223
-0.0046797865 -0.083912641 1.0509598
0.0049924706 -0.084329188 1.0513332
0.014388792 -0.08526253 1.0552073
0.02488903 -0.086362004 1.0556841
0.03057901 -0.08988376 1.057
-0.011788975 -0.076976813 1.05475
-0.0046223709 -0.076020055 1.0546666
0.0039299871 -0.075802192 1.0545
0.01081076 -0.078146361 1.057
-0.08231549 -0.17211421 1.067
-0.074960962 -0.17363651 1.0656667
-0.066380762 -0.172034 1.0665001
-0.082081638 -0.16626793 1.067
-0.074847117 -0.16530769 1.0649309
-0.064717814 -0.16522001 1.0661999
-0.057530295 -0.16460574 1.0662727
-0.093672104 -0.15459748 1.0649999
-0.084633671 -0.1542602 1.0669999
-0.075636514 -0.15500928 1.0651332
-0.065377392 -0.15543254 1.0629032
-0.056397408 -0.1552726 1.0628234
-0.094762281 -0.14431481 1.0634998
-0.084840603 -0.1445109 1.0634799
-0.075408839 -0.14429937 1.0619198
-0.065793343 -0.14573425 1.0603333
-0.055224989 -0.1466914 1.0600002
-0.094898053 -0.13501899 1.0626665
-0.084765151 -0.13506526 1.0625199
-0.075462528 -0.1346532 1.0604999
-0.069694996 -0.13567293 1.0600001
-0.10008816 -0.12627944 1.067
-0.094379179 -0.12504539 1.0644665
-0.08465755 -0.1253719 1.0611537
-0.076357812 -0.12546995 1.060158
-0.092782162 -0.11640481 1.0636667
-0.08475326 -0.11532615 1.0623792
-0.07547424 -0.11517969 1.0610343
-0.065092891 -0.11364347 1.06012
-0.054872759 -0.11160693 1.0609001
-0.049251132 -0.11244126 1.0600001
0.017656066 -0.11058273 1.0600001
0.025492942 -0.11182356 1.0612
0.032207854 -0.11151393 1.0618001
-0.083372578 -0.10873981 1.0638001
-0.07430689 -0.10563131 1.0634999
-0.065832607 -0.10618708 1.0616817
-0.054139812 -0.10641995 1.0601877
-0.048321869 -0.10686567 1.0600001
0.019049967 -0.1073303 1.0600001
0.025462933 -0.10544405 1.0619564
0.033607714 -0.10454512 1.0648
0.025966393 -0.096493833 1.0606925
0.033302564 -0.096041091 1.0635715
0.018585334 -0.080846198 1.0600001
0.024185481 -0.081541978 1.061
-0.0018585334 -0.071553536 1.0600001
0.0046547493 -0.071634538 1.0612
0.015586982 -0.074758351 1.062793
0.023553597 -0.075429261 1.0652223
0.0083870701 -0.06989225 1.0630001
0.013046553 -0.06989225 1.0630001
-0.082932666 -0.18141434 1.075
-0.077421933 -0.18128064 1.077
-0.062000498 -0.18253954 1.077
-0.054656953 -0.18295914 1.0769999
-0.047343381 -0.18276434 1.077
-0.093472831 -0.17089477 1.077
-0.08498127 -0.1752867 1.0730666
-0.07584291 -0.17895675 1.0725
-0.064203084 -0.17595866 1.0733076
-0.054758791 -0.17506583 1.0727308
-0.047301952 -0.17432965 1.0748668
-0.093718238 -0.16510105 1.0730625
-0.086950898 -0.16433764 1.0718824
-0.064724296 -0.16978404 1.0700001
-0.053499263 -0.1654586 1.0706427
-0.048794493 -0.16519205 1.0726666
-0.086768083 -0.15805861 1.0700001
-0.05240012 -0.15720351 1.0712001
-0.049246751 -0.15712059 1.0700001
-0.081608899 -0.10599776 1.0700001
-0.079319701 -0.10560304 1.0707501
0.037905898 -0.10306385 1.072
0.038459368 -0.098493502 1.0700001
0.0253269 -0.074104629 1.0700001
-0.076234929 -0.19154027 1.087
-0.081109203 -0.18588839 1.08
-0.075523078 -0.18547712 1.0865715
-0.066483364 -0.18500169 1.0843999
-0.055675723 -0.18733379 1.0815715
-0.089946002 -0.17231759 1.08
-0.074852727 -0.19015777 1.09
-0.074725315 -0.18709995 1.09
0.0090656104 -0.2518225 1.149
0.01108019 -0.25081521 1.149
0.0090656104 -0.24779335 1.149
0.013585266 -0.24908599 1.148
0.0064017121 -0.25236222 1.153
0.019271763 -0.25053293 1.1570001
0.0063565853 -0.24487743 1.1535714
0.014523153 -0.24703456 1.1556665
0.043464255 -0.2415804 1.153
0.088244386 -0.17547446 1.1570001
0.090272993 -0.17547448 1.1570001
0.086215779 -0.16482429 1.1570001
0.090272993 -0.16431713 1.1570001
0.086215779 -0.1511312 1.1570001
0.091555119 -0.15225552 1.1539999
0.0912873 -0.14910258 1.1570001
0.024449356 -0.25161558 1.1620001
0.015762826 -0.24278173 1.1621767
0.025503229 -0.24483103 1.1636668
0.035243113 -0.24336153 1.1637275
0.044545677 -0.24109337 1.1636667
0.050044518 -0.24000941 1.1650001
0.016603988 -0.2369999 1.1639091
0.025747931 -0.2350641 1.1650003
0.036007911 -0.23508027 1.1670954
0.045255333 -0.2349522 1.1685295
0.054007281 -0.23415172 1.1681308
0.061241649 -0.23206577 1.1682
0.029618183 -0.22979625 1.1650001
0.03655586 -0.22649403 1.1680002
0.044885971 -0.22488804 1.1684548
0.051924381 -0.22511952 1.1689999
0.063539043 -0.22853561 1.169
0.046117045 -0.21682334 1.169
0.053756639 -0.21390863 1.1690001
0.062514223 -0.21008877 1.169
0.076861747 -0.21008877 1.169
0.056365281 -0.20752674 1.169
0.064456001 -0.20480287 1.1690001
0.073787287 -0.20352991 1.1689999
0.080961041 -0.20803913 1.169
0.058414929 -0.19984055 1.169
0.065972999 -0.19663797 1.169
0.074056968 -0.19574125 1.1690001
0.085481919 -0.19293553 1.1685556
0.068663165 -0.18959232 1.169
0.0757581 -0.18738499 1.1689999
0.084867612 -0.18508823 1.1664402
0.090663113 -0.18336622 1.1619999
0.077772699 -0.17547251 1.169
0.083901986 -0.17486863 1.1658003
0.091602899 -0.17200989 1.161
0.078447461 -0.16611062 1.1682001
0.084525891 -0.16478816 1.1642728
0.091315649 -0.16531624 1.1616668
0.078857392 -0.15464383 1.1682001
0.084460132 -0.15509947 1.1646365
0.091461755 -0.15705501 1.1618
0.078843892 -0.14539778 1.168
0.084037289 -0.14563784 1.1634001
0.090741135 -0.14681536 1.1630001
0.046274848 -0.23754422 1.1730001
0.056716349 -0.22457145 1.1730002
0.064493909 -0.22469977 1.1752002
0.071075752 -0.22249624 1.1750001
0.058614809 -0.21697764 1.1730001
0.06514845 -0.21575123 1.1744547
0.073959984 -0.21474171 1.1746473
0.05758648 -0.20566601 1.1730001
0.066841446 -0.20875099 1.1730001
0.07609643 -0.20710567 1.1730002
0.082609177 -0.20326656 1.1730002
0.065813117 -0.19229771 1.1730001
0.077467524 -0.19641103 1.1730002
0.082707107 -0.19670483 1.1730002
0.067664117 -0.18653907 1.1730001
0.074039765 -0.18407108 1.1730002
0.074638709 -0.17682591 1.1734446
0.077124752 -0.16597246 1.1730001
