# .PCD v0.7 - Point Cloud Data file format
VERSION 0.7
FIELDS x y z
SIZE 4 4 4
TYPE F F F
COUNT 1 1 1
WIDTH 255
HEIGHT 1
VIEWPOINT 0 0 0 1 0 0 0
POINTS 255
DATA ascii
-0.22092614 -0.031560875 0.97300005
-0.21836714 -0.031560875 0.97300005
-0.23149261 -0.02743616 0.97800004
-0.22456534 -0.02593936 0.97631276
-0.21526621 -0.024625365 0.97629637
-0.20616098 -0.021764303 0.97740012
-0.22305295 -0.015424366 0.97733337
-0.21481493 -0.015409442 0.97624999
-0.20617673 -0.015555536 0.97742331
-0.22280528 -0.0079973917 0.97750002
-0.21458255 -0.0064450484 0.9762336
-0.20720017 -0.0088595934 0.97799999
-0.22720569 0.0094311796 0.97800004
-0.23149261 0.01114594 0.97800004
-0.22413604 0.014187534 0.97749996
-0.21691714 0.019148154 0.97799999
-0.23241082 -0.023255337 0.98260003
-0.22962266 -0.02236026 0.98100007
-0.21643585 -0.027233651 0.98100013
-0.2340817 -0.015454482 0.9861877
-0.22790262 -0.015996186 0.98100001
-0.2018563 -0.015010579 0.9816668
-0.19539341 -0.014257232 0.98353839
-0.18590054 -0.012437069 0.9863078
-0.17797604 -0.011231415 0.98550004
-0.24189949 -0.0021056281 0.98899996
-0.23405783 -0.0049254848 0.98742318
-0.22604506 -0.0039845761 0.98466665
-0.21530133 -0.0017203488 0.98137504
-0.20504151 -0.0047494886 0.98166686
-0.19498891 -0.0051773023 0.98416644
-0.18505594 -0.0051887711 0.98641652
-0.17603283 -0.0059168683 0.98720008
-0.1690748 -0.0068984898 0.98400009
-0.24067655 0.00086263998 0.98400003
-0.23430866 0.0042446256 0.9835555
-0.22526412 0.0051676873 0.98350024
-0.21525092 0.0052166814 0.98258835
-0.20530054 0.0051626018 0.98150027
-0.19440205 0.0051959464 0.98274177
-0.18436201 0.0049649472 0.98531234
-0.1782674 0.0055303504 0.98823082
-0.22231258 0.011610135 0.98100007
-0.21511905 0.014904007 0.98215401
-0.20533371 0.015806776 0.98425716
-0.19576322 0.013913174 0.98662496
-0.1846974 0.015225999 0.98630291
-0.17492065 0.015697744 0.98708564
-0.16799058 0.017318331 0.98774999
-0.21112588 0.021631749 0.98700005
-0.20548208 0.022767421 0.98622239
-0.18217501 0.022707243 0.98860008
-0.17529047 0.023731453 0.98790014
-0.16830754 0.023054054 0.98860008
-0.15172908 0.027744748 0.98900002
-0.14634448 0.02632159 0.98850018
-0.14796118 0.030284449 0.98700005
-0.23429853 -0.034636516 0.99600005
-0.24294768 -0.023444217 0.99718189
-0.23837003 -0.023176439 0.99380004
-0.25284997 -0.011373873 0.99799997
-0.2450327 -0.014156764 0.99680007
-0.23910588 -0.014506496 0.99300003
-0.26159909 -0.0078742197 0.99800003
-0.25352806 -0.0078544952 0.99550003
-0.24473283 -0.0068767043 0.99274999
-0.23915467 -0.0069572264 0.99200004
-0.17325428 -0.0024157038 0.99200004
-0.16543898 -0.0023260892 0.995
-0.15610954 -0.001624839 0.99800009
-0.1734077 0.0053553539 0.99246174
-0.16451846 0.0050355727 0.99538469
-0.15579344 0.00461306 0.99786353
-0.14887786 0.0034978997 0.99700004
-0.19364281 0.017972836 0.99200004
-0.1713217 0.011305493 0.99200004
-0.16420187 0.014238919 0.99455571
-0.15650673 0.016611893 0.99735725
-0.14961018 0.01837318 0.99800003
-0.20162719 0.023738159 0.99350005
-0.19514821 0.024286916 0.99440026
-0.18578835 0.025704704 0.99240911
-0.17381798 0.027954824 0.99363631
-0.16441882 0.024712257 0.99466693
-0.15569064 0.023918519 0.99393576
-0.14654095 0.02176208 0.99300003
-0.19312353 0.030878831 0.99500006
-0.18360706 0.033363264 0.99431837
-0.17502597 0.033992995 0.99603438
-0.16435872 0.03187184 0.99800009
-0.15681288 0.031013399 0.99650002
-0.25248176 -0.050319791 1.0070001
-0.24630213 -0.050319791 1.0070001
-0.23385641 -0.051845301 1.0066251
-0.26194036 -0.042752903 1.0070001
-0.2543487 -0.044480924 1.0067
-0.24527293 -0.044998068 1.0064
-0.23693331 -0.045414023 1.0052
-0.28232053 -0.035841815 1.0070001
-0.27536672 -0.03388606 1.0070001
-0.26519638 -0.035139792 1.0063792
-0.25518996 -0.03509194 1.0042572
-0.24492578 -0.035411321 1.0039117
-0.23784909 -0.034892768 1.0018182
-0.28161427 -0.02913251 1.0070001
-0.27466953 -0.027602319 1.0070001
-0.26484641 -0.024913136 1.0059687
-0.25482967 -0.024563322 1.003909
-0.24667044 -0.025822217 1.0018002
-0.23956932 -0.02895893 1.001
-0.27134001 -0.01440597 1.006
-0.26462668 -0.014737225 1.0039999
-0.25565746 -0.015609488 1.003
-0.24775974 -0.017843381 1.001
-0.26326299 -0.0096529769 1.001
-0.25799775 -0.0096529769 1.001
-0.15216602 0.0073713637 1.0010002
-0.1533668 0.013586013 1.0017061
-0.16585569 0.032469101 1.001
-0.26263705 -0.081292421 1.0190001
-0.25692451 -0.083197802 1.0180001
-0.27367514 -0.073299944 1.0172002
-0.26532391 -0.074895002 1.0187861
-0.25544316 -0.074737221 1.0177649
-0.24538693 -0.073161863 1.0188639
-0.23510642 -0.07422705 1.0190003
-0.2275226 -0.073046371 1.0190001
-0.2737914 -0.065217935 1.0167501
-0.26516229 -0.064989194 1.0176157
-0.25526285 -0.065227978 1.0161113
-0.24513118 -0.064914837 1.0152762
-0.23548941 -0.065038048 1.0181727
-0.22720191 -0.065311864 1.0190002
-0.28097025 -0.054208159 1.0136
-0.2754128 -0.054922696 1.0149094
-0.26503795 -0.055143066 1.0145003
-0.25454113 -0.055439822 1.0108892
-0.24472564 -0.055791486 1.0112003
-0.23571788 -0.056572177 1.0130002
-0.22801748 -0.059676453 1.016
-0.28266236 -0.045339391 1.0139376
-0.27477616 -0.045092225 1.0128893
-0.26575214 -0.046081845 1.0108335
-0.25872362 -0.047282141 1.01
-0.28068236 -0.038959064 1.01
-0.27477947 -0.039254207 1.0100001
-0.26828629 -0.039844498 1.01
-0.28056839 -0.020485947 1.016
-0.27580491 -0.022690868 1.0115882
-0.28056839 -0.017813865 1.016
-0.27449811 -0.017765738 1.0133001
-0.25203931 -0.10063549 1.028
-0.2474732 -0.10111614 1.028
-0.25327134 -0.094163731 1.0264117
-0.2461756 -0.093712881 1.0278499
-0.23792031 -0.091022544 1.028
-0.26097754 -0.085200608 1.0230001
-0.25364089 -0.085660659 1.0244285
-0.24515302 -0.085652493 1.0259999
-0.23556526 -0.084665507 1.0246249
-0.22548833 -0.083628282 1.0257058
-0.21761563 -0.082278892 1.02575
-0.27147385 -0.076156035 1.0220001
-0.26968196 -0.074364126 1.0220001
-0.2517629 -0.078843892 1.0220001
-0.24446726 -0.078203924 1.0220002
-0.23420219 -0.077768743 1.0220002
-0.22374892 -0.077032544 1.0239091
-0.21838447 -0.077896431 1.0272501
-0.24358578 -0.10123046 1.031
-0.23951848 -0.10032661 1.031
-0.24367616 -0.096711226 1.031
-0.23534493 -0.094885737 1.0323602
-0.22745146 -0.09333723 1.0336667
-0.23264928 -0.088757411 1.031
-0.22708474 -0.088663436 1.0320001
-0.2238989 -0.073424339 1.034
-0.21873009 -0.076826684 1.031
-0.2254322 -0.062672026 1.067
-0.24725826 -0.040845945 1.067
-0.24511194 -0.036381774 1.0641251
-0.23325658 -0.062317848 1.0747143
-0.22773594 -0.063189402 1.0705001
-0.23409122 -0.054069467 1.0769999
-0.22710265 -0.05675213 1.0740908
-0.24439257 -0.044567019 1.0728095
-0.23725462 -0.044714663 1.0755262
-0.24201259 -0.037521336 1.0700001
-0.2376468 -0.061542001 1.08
-0.23555756 -0.054611195 1.0802667
-0.2281788 -0.052074 1.08
-0.17086263 -0.13688244 1.097
-0.16511567 -0.13627443 1.0966251
-0.15868105 -0.13560016 1.097
-0.13829723 -0.1315732 1.0955
-0.13498455 -0.12815124 1.0954444
-0.1290015 -0.12517923 1.09
-0.093010448 -0.053717997 1.097
-0.085512035 -0.053804498 1.09595
-0.091682382 -0.044558916 1.097
-0.085396625 -0.045095626 1.09444
-0.079370245 -0.044944599 1.0908
-0.092647083 -0.035363939 1.0956365
-0.085720949 -0.035894398 1.0930909
-0.088234752 -0.029731274 1.0940001
-0.18131395 -0.13671266 1.1060001
-0.17516348 -0.13402803 1.1021427
-0.16550156 -0.13259068 1.1039999
-0.15537611 -0.13319717 1.102263
-0.14621237 -0.13280186 1.1019411
-0.13995545 -0.13030335 1.1010001
-0.17192836 -0.1291891 1.108
-0.16492741 -0.12858407 1.1075714
-0.15421189 -0.1258191 1.1039999
-0.14483842 -0.12472697 1.1029198
-0.1352309 -0.12380943 1.1047367
-0.127626 -0.12245368 1.1056666
-0.14341369 -0.11826386 1.1035
-0.1344301 -0.11556078 1.1052607
-0.12508263 -0.1153852 1.1060398
-0.11893649 -0.11796777 1.103
-0.13183682 -0.10737151 1.1073999
-0.12498993 -0.10607897 1.1074781
-0.10150573 -0.10150573 1.108
-0.097840384 -0.10171525 1.105
-0.11481317 -0.093637824 1.1079999
-0.10608128 -0.093811639 1.1079999
-0.095847853 -0.094181933 1.1075714
-0.11170486 -0.085478507 1.108
-0.10513121 -0.084398217 1.1074641
-0.094341308 -0.084307343 1.1074998
-0.087701909 -0.082667388 1.1042001
-0.10410048 -0.075356252 1.1076999
-0.094615974 -0.074406222 1.1053212
-0.085859641 -0.074248619 1.1034999
-0.10251148 -0.064222842 1.1057501
-0.095492736 -0.064930312 1.102846
-0.085806377 -0.06455715 1.1018332
-0.101037 -0.055837821 1.1046667
-0.096321695 -0.055744503 1.1019411
-0.085903689 -0.058877815 1.1010001
-0.095419578 -0.046344582 1.1034545
-0.094316527 -0.034655161 1.1046
-0.12023046 -0.11241058 1.115
-0.11501955 -0.11377547 1.1144544
-0.12283152 -0.1004099 1.1120001
-0.11509352 -0.10436716 1.1126
-0.10548773 -0.10440515 1.113
-0.12185667 -0.097485334 1.1120001
-0.11494406 -0.096510485 1.1120002
-0.10255457 -0.094950713 1.1120002
-0.097346067 -0.094003715 1.1120001
-0.11340794 -0.087411843 1.1120001
-0.10138474 -0.085787088 1.1120001
-0.10495921 -0.068564683 1.1120001
