# .PCD v0.7 - Point Cloud Data file format
VERSION 0.7
FIELDS x y z normal_x normal_y normal_z
SIZE 4 4 4 4 4 4
TYPE F F F F F F
COUNT 1 1 1 1 1 1
WIDTH 206
HEIGHT 1
VIEWPOINT 0 0 0 1 0 0 0
POINTS 206
DATA ascii
-0.28433457 -0.12500918 1.3980001 0.1683703214 -0.008857567795 0.9856840372
-0.093194053 -0.30116394 1.1190001 -0.1947492212 0.226952672 0.9542354345
-0.34240496 -0.35324055 1.2360001 0.6773917675 -0.3757458329 0.6324203014
-0.028645083 -0.10885131 1.307 -0.6799023747 -0.4842074215 0.5507049561
-0.22192436 -0.18843979 1.2190001 0.56299752 -0.6886022091 0.4570128322
-0.15500967 0.024221096 1.3813752 0.1898133457 -0.5088766217 0.8396520019
-0.35439074 -0.22869892 1.3153334 0.5873327255 -0.6042141914 0.5384843946
-0.07463865 -0.16623406 1.1748669 -0.3396938145 -0.6943705082 0.6343955398
-0.21735004 -0.37257224 1.1618 0.1632107496 0.3425275087 0.9252227545
-0.1561859 -0.1139736 1.358091 0.3398801088 0.1762445867 0.9238069654
-0.36356682 -0.21915351 1.4450001 0.5894066095 -0.3607956469 0.7227906585
-0.36109814 -0.10558835 1.4870001 0.8635234237 -0.1954255849 0.4649044573
-0.28510511 -0.27508253 1.1748183 0.5305430293 -0.2366816849 0.8139446378
-0.16471305 -0.21544681 1.128 0.2693890929 -0.3168618381 0.9094108343
-0.25659174 -0.022690412 1.4222001 0.5707526207 -0.4665780663 0.6756821275
-0.058850631 -0.022819633 1.3700001 -0.365568161 -0.4697833359 0.8035319448
-0.14501528 -0.12236806 1.25 0.1692209691 -0.8129067421 0.5572673678
-0.28228667 -0.17727602 1.2880001 0.5741865635 -0.6079029441 0.5484193563
-0.18196034 -0.30238983 1.126 0.4095435441 0.1229756549 0.9039641023
-0.33617449 -0.26219434 1.2410001 0.7764190435 -0.4335892498 0.457355231
-0.19505164 -0.045750715 1.3733751 0.3901527226 -0.2783411145 0.8776714206
-0.053943928 -0.24122097 1.161 -0.6772284508 -0.4151702225 0.6074498296
-0.037231158 -0.16558918 1.2438571 -0.6236333847 -0.5550550818 0.550450027
-0.15840752 -0.16047822 1.1810001 0.3344059289 -0.8684348464 0.3660513759
-0.28983915 -0.38125795 1.1850001 0.5372347236 0.2074711472 0.8175173402
-0.21459478 -0.13591585 1.2764615 0.5323624015 -0.6939420104 0.4848038852
-0.31534633 -0.065079674 1.4351819 0.6368629932 -0.4186366498 0.6474170685
-0.10172986 -0.094050266 1.3136667 0.3127873242 -0.9049389362 0.2885301709
-0.22674409 -0.23379479 1.1622308 0.495524317 -0.5571424961 0.6663691998
-0.33178064 -0.15769042 1.439 0.8442927599 -0.1327287853 0.5191847682
-0.12633206 -0.044276051 1.3649999 -0.0004522893869 -0.2729878426 0.9620173573
-0.21684204 -0.13172647 1.3870001 0.2553729117 0.1376214027 0.956997931
-0.27983463 -0.22193781 1.223 0.5801799297 -0.6815831661 0.445909977
-0.10481268 -0.23549728 1.1243747 -0.05398275331 -0.5358721018 0.8425716162
-0.23511411 -0.31043205 1.161 0.2281861901 -0.1859441698 0.9556965232
-0.028593361 -0.075057566 1.3590001 -0.9440338612 -0.3172581494 0.09026242048
-0.073350474 -0.11702755 1.2535 0.3020973504 -0.8097988963 0.502954185
-0.24431539 -0.076057151 1.3948002 0.5099774599 -0.05323309079 0.8585389853
-0.25502145 -0.16205797 1.4330001 -0.3947885334 0.397498101 0.8283340335
-0.30291077 -0.32383746 1.2056001 0.6829149127 0.2345665842 0.6918134093
-0.097680248 0.021481546 1.3870001 -0.2739388943 -0.748958528 0.6033395529
-0.31378442 -0.2182593 1.2670001 0.7294787765 -0.5798586607 0.3628011942
-0.10619832 -0.14629744 1.2149999 -0.1928300112 -0.831782043 0.5205336213
-0.20371015 0.0028588099 1.3970002 0.5175027847 -0.4483391941 0.7288228869
-0.044918645 -0.20224385 1.2028 -0.6006442308 -0.629535377 0.4928607643
-0.13369459 -0.33309591 1.1353334 -0.3464277685 0.5237452984 0.7782536149
-0.11569675 -0.18506351 1.1462415 -0.3053386211 -0.5612304807 0.7692780495
-0.18509911 -0.1517881 1.2323335 0.3713434339 -0.7002965212 0.6096628904
-0.29592234 -0.18319002 1.4100001 0.1591255516 0.5082854629 0.8463597894
-0.055408355 -0.065897569 1.3136668 0.1285709739 -0.6556562781 0.7440325022
-0.36540297 -0.15512142 1.4769999 0.6949442029 -0.2708336115 0.6661093831
-0.14280412 -0.26837084 1.1190001 0.3102345169 -0.3392930627 0.8880510926
-0.19624297 -0.19405194 1.1632859 0.5848905444 -0.5787992477 0.5682380795
-0.18825206 -0.25667101 1.141 0.4057073891 0.1266099364 0.9051913619
-0.33178064 -0.10975253 1.439 0.7874675989 -0.1126821786 0.6059682965
-0.25781387 -0.19261368 1.2514286 0.4481983185 -0.8030908108 0.3926364779
-0.26363581 -0.34562165 1.169 0.529908061 -0.05896911398 0.8460023999
-0.085056171 -0.054336894 1.3475003 0.3939962089 -0.3523720205 0.8488821983
-0.34845307 -0.30985519 1.223 0.7706497908 0.3588799834 0.526596725
-0.19566514 -0.094271213 1.3718461 0.5003957748 0.2386618406 0.8322527409
-0.18655993 -0.35017398 1.138 0.3038016558 0.3034958243 0.9031028748
-0.31735447 -0.2825608 1.2026668 0.6901882887 -0.4622308612 0.5567609072
-0.16372348 -0.014686159 1.3649999 0.1968974322 -0.2037101537 0.9590274096
-0.32507151 -0.18009187 1.2920001 0.3426494002 -0.2937539518 0.8923564553
-0.28368497 -0.082818694 1.41 0.3555943668 -0.3386069536 0.8711475134
-0.037669782 -0.13799757 1.2763333 -0.7663511038 -0.4572905004 0.4512110054
-0.26554877 -0.23502164 1.1854209 0.6295304894 -0.5057644844 0.5898250937
-0.17808753 -0.11660046 1.2830001 0.3385967314 -0.8356994987 0.432387054
-0.066055954 -0.27393574 1.13525 -0.4153869152 -0.2166549265 0.883467257
-0.33331743 -0.1959911 1.4240001 0.6602570415 -0.2968955338 0.6898649335
-0.075485878 -0.20550284 1.1636666 -0.6320361495 -0.3525286615 0.6901115179
-0.063942924 -0.15453504 1.2156999 -0.8613051176 -0.3889192939 0.3269484639
-0.34283629 -0.24760397 1.278 0.5237244964 -0.7006096244 0.4846223295
-0.23469856 -0.27096102 1.149 0.03777903691 0.299905479 0.9532205462
-0.06536667 -0.094099648 1.2855 0.09945770353 -0.8761791587 0.4716123641
-0.15457465 -0.074253872 1.3540001 0.234537065 -0.09481855482 0.967471838
-0.22819984 -0.033762187 1.3920001 0.4909352958 -0.3303270936 0.8061429858
-0.13367201 -0.10697024 1.2844286 -0.030449057 -0.9468559027 0.3202136159
-0.24554682 -0.16556226 1.2772857 0.4792808592 -0.6368093491 0.603956759
-0.14474118 -0.13941981 1.2140001 0.3126454055 -0.8778115511 0.3629045486
-0.34011158 -0.074439526 1.4640001 0.8035274744 -0.2434896529 0.5431908965
-0.12804155 0.00119665 1.365 -0.02955404669 -0.2795964479 0.9596626163
-0.040270559 -0.059795681 1.3920001 -0.9067665935 -0.3850641251 0.1717555076
-0.23633735 -0.21285339 1.1934444 0.5205637813 -0.7331112027 0.4376771748
-0.26750124 -0.16282462 1.3965001 -0.2842133343 0.2192537785 0.933354497
-0.11573502 -0.075578414 1.3471254 0.2018339932 -0.3964446187 0.8955973983
-0.28505003 -0.04557227 1.427 0.528193295 -0.4322702587 0.7308585644
-0.24988419 -0.38562375 1.1730001 0.3240770698 0.3158212304 0.8917572498
-0.21807083 -0.1610875 1.25 0.5694183111 -0.6172837019 0.5428845286
-0.11523521 -0.16402119 1.1842 -0.1548186541 -0.8484830856 0.5060707331
-0.3109791 -0.24792835 1.2190001 0.6390266418 -0.4984997213 0.585784018
-0.35560322 -0.18469791 1.4529999 0.5612735748 -0.4091407061 0.7194274664
-0.14536276 -0.30422965 1.1158398 0.1261509657 0.1715120375 0.9770719409
-0.27240488 -0.31161469 1.177 0.5152418613 0.2350048274 0.824195683
-0.095732003 -0.014359801 1.3649999 0.06739750504 -0.2450975925 0.9671528935
-0.3132863 -0.14603445 1.4107692 0.5298087001 -0.1453212351 0.8355743289
-0.24772497 -0.11471008 1.3920001 0.4372043014 0.07671364397 0.8960844874
-0.31366667 -0.36218837 1.2033335 0.6771587133 -0.08489707112 0.7309231162
-0.19380558 -0.17809308 1.1950001 0.5545621514 -0.7773805857 0.2968842089
-0.15496212 -0.18417177 1.1553156 0.08905655891 -0.6411710978 0.7622129321
-0.1069621 -0.11896805 1.245 -0.221591711 -0.8259664774 0.5183401108
-0.06955824 0.00122032 1.3920001 -0.5167630315 -0.6702605486 0.5326413512
-0.19577307 -0.22340314 1.1420666 0.5094889402 -0.4000810683 0.7618111372
-0.13078727 -0.10439522 1.3380001 0.4975553453 -0.3931075335 0.7732432485
-0.2148895 -0.33511189 1.1482382 0.3935200274 0.04223493487 0.9183453321
-0.094858959 -0.10797589 1.2772857 0.07457339764 -0.8803130388 0.4684951901
-0.32530469 -0.2111627 1.302 0.6281969547 -0.5647748709 0.5351616144
-0.20794845 -0.29432562 1.153 0.6035333872 -0.1338905543 0.786015749
-0.048092179 -0.045746218 1.3380001 0.03772381693 -0.820707798 0.5701013803
-0.35037911 -0.12577713 1.4640001 0.8054697514 -0.01685295627 0.592397213
-0.28699961 -0.20130605 1.2640001 0.4721894562 -0.7549180984 0.4551217556
-0.13300882 -0.21578908 1.1303077 -0.4299098849 0.1322874427 0.8931279778
-0.26216891 -0.048002761 1.404 0.5750670433 -0.2278751433 0.7857294679
-0.034539349 -0.095418155 1.3355 -0.7831557989 -0.5605996251 0.2690633237
-0.098098993 -0.26584831 1.1190002 -0.4031469524 -0.08827705681 0.9108675718
-0.34080416 -0.32546249 1.25 0.7309221625 0.2318326235 0.6418772936
-0.077089615 -0.24489871 1.1352308 -0.4767109454 -0.2849791646 0.83158499
-0.10564271 -0.21530527 1.1476668 -0.1989095211 -0.3103712797 0.9295722842
-0.30769861 -0.10339669 1.4210001 0.626429677 -0.1506734937 0.7647767067
-0.080330722 -0.078002296 1.3280001 0.6497984529 -0.5914923549 0.4773874283
-0.28641015 -0.25226855 1.202 0.5618644953 -0.487195313 0.6685424447
-0.17666991 -0.13215542 1.253625 0.3012903035 -0.7949998975 0.5264972448
-0.25502577 -0.25467831 1.164 0.527169466 -0.439438045 0.727314651
-0.16345869 -0.046225928 1.3590001 0.2359298617 -0.2707746923 0.9332835674
-0.21832536 -0.062551625 1.381 0.4855546057 -0.1196982861 0.8659728765
-0.085105054 -0.13775063 1.2340001 0.1521913856 -0.9022363424 0.4034939408
-0.16174777 -0.3340719 1.126 0.299929738 0.1321571916 0.9447627068
-0.24304204 -0.14330494 1.397143 0.3019183278 0.287724942 0.9088782668
-0.25576293 -0.28656161 1.1623334 0.3111860454 0.1822580099 0.9327085614
-0.36852962 -0.13246083 1.4960001 0.8129186034 -0.1391703486 0.5655041933
-0.25381312 -0.20673561 1.216077 0.3885968626 -0.7751510143 0.4981299341
-0.32187644 -0.33547819 1.2252222 0.7194473743 -0.2497860193 0.6480759382
-0.22867849 -0.0111249 1.4100001 0.504997611 -0.5002599955 0.7033615112
-0.15532121 -0.24487272 1.1301535 0.02155829966 -0.03819472715 0.9990377426
-0.30676582 -0.23125327 1.2423334 0.6007224917 -0.6857579947 0.4109360576
-0.29290223 -0.34502009 1.189 0.5984248519 -0.2432947457 0.7633448243
-0.048661135 -0.22052813 1.1810001 -0.6464912295 -0.4659360945 0.6041131616
-0.17233337 -0.16176078 1.2060001 0.4853922129 -0.8286388516 0.2788406014
-0.053939104 -0.13512239 1.243 -0.8003582954 -0.3729459941 0.4694015682
-0.18777411 -0.12156999 1.3730001 0.5160600543 0.1592184901 0.8416243196
-0.12519269 0.025040815 1.3820001 -0.08437355608 -0.4815357924 0.8723556399
-0.21373487 -0.19564271 1.1858001 0.6323010325 -0.6972697973 0.3376541138
-0.30148217 -0.19985896 1.2880001 0.5895415545 -0.660954237 0.4643061459
-0.18644421 -0.012106767 1.381 0.4451089501 -0.3312683403 0.8319491148
-0.084998973 -0.14796117 1.197 0.1016709134 -0.8434170485 0.5275515914
-0.063433848 -0.18287618 1.21 -0.6724251509 -0.5570554137 0.4873742759
-0.22598374 -0.094767101 1.3858752 0.316388607 0.05913802236 0.9467845559
-0.30452392 -0.30348611 1.1872858 0.4074521363 0.4447352588 0.7976172566
-0.16791235 -0.27093822 1.13 0.279399544 -0.2933033407 0.9142805934
-0.11746807 -0.31094489 1.126 -0.2412309498 0.5222755671 0.817946136
-0.03847076 -0.1852607 1.2258003 -0.5081537366 -0.5994572639 0.6184098721
-0.093638532 -0.18247882 1.1610001 -0.2459822595 -0.4981019199 0.831496954
-0.05061435 -0.11585062 1.2830001 -0.8217023611 -0.4456571341 0.3552393019
-0.24038988 -0.34283453 1.1570001 0.3863123953 0.08219742775 0.918698132
-0.19210237 -0.325122 1.138 0.4058817923 0.07333334535 0.9109787345
-0.20373189 -0.16844992 1.2270001 0.4814194143 -0.7333375216 0.4800536036
-0.21537629 -0.25501907 1.1448003 0.2893525958 0.1772863716 0.940661788
-0.12543829 -0.13192563 1.2335001 0.07822863758 -0.8615911603 0.5015385747
-0.11457866 -0.28498751 1.1171198 -0.1856585294 0.1422137618 0.9722685814
-0.18228267 -0.077440351 1.3590001 0.3321376741 -0.01289582439 0.9431427717
-0.18198518 0.011754054 1.3870001 0.4560257494 -0.4289493859 0.7797710896
-0.065234967 -0.19613975 1.1843332 -0.7785606384 -0.4403933883 0.447098434
-0.23646416 -0.18306728 1.243 0.5502415895 -0.7077777982 0.4430403709
-0.33129847 -0.28197896 1.223 0.6837176681 -0.4653394222 0.5621292591
-0.32809687 -0.086141266 1.4450001 0.7730815411 -0.2222929299 0.5940797925
-0.074781418 -0.032939434 1.3540001 -0.02063969336 -0.5275078416 0.8492993712
-0.13882086 -0.1661105 1.1672223 -0.1441673487 -0.7121829987 0.6870307326
-0.32128519 -0.17656212 1.4150001 0.6372429132 0.08727152646 0.7657056451
-0.1438178 -0.027742369 1.3590001 -0.07529812306 -0.1683317721 0.9828502536
-0.33176818 -0.30512524 1.2060001 0.6465233564 0.1788337529 0.7416374087
-0.13157625 -0.1448379 1.1943334 -0.0977140218 -0.864074707 0.4937883317
-0.28924739 -0.15508583 1.404 0.1504402757 0.0003790616756 0.9886190295
-0.32424727 -0.24554574 1.2538 0.7112058401 -0.6503530145 0.2668842971
-0.17757246 -0.17374493 1.1747143 0.5253298283 -0.773096025 0.3554590344
-0.15794553 -0.14171667 1.2340001 0.3288554251 -0.8153527975 0.4765017927
-0.083692543 0.0054585314 1.3713847 -0.2909277081 -0.7008983493 0.6512315273
-0.10450192 -0.036252294 1.359 0.2676250041 -0.2880495489 0.9194586873
-0.33178064 -0.13372147 1.439 0.830697298 0.02738088369 0.5560505986
-0.14538705 -0.19582772 1.1323638 0.2041344345 -0.6093121767 0.7662035227
-0.043707095 -0.086263999 1.312 -0.7649023533 -0.3928085566 0.5105152726
-0.27620143 -0.20605962 1.2436666 0.4961673021 -0.7596334815 0.4204462171
-0.19598557 -0.36419722 1.1543334 0.2189548165 0.4064465463 0.8870512843
-0.25970724 -0.098467201 1.404 0.369772166 -0.130906865 0.9198542833
-0.19320855 -0.28512359 1.1372001 0.6391531825 -0.08001409471 0.76490587
-0.24278732 -0.36616352 1.1569999 0.3336629272 0.1799833179 0.9253513217
-0.072588697 -0.085409418 1.3060001 0.5474448204 -0.6218214631 0.5600377321
-0.1744311 -0.19494411 1.1480771 0.3567324281 -0.5371382833 0.7643457651
-0.25475991 -0.32464051 1.164294 0.5400328636 -0.008141263388 0.8416045308
-0.20223385 -0.067012399 1.365 0.434233129 -0.1383578479 0.8901116252
-0.12357718 -0.25563139 1.1176087 0.1781959981 -0.3800803125 0.9076260924
-0.24447197 -0.22644401 1.1750001 0.4335207045 -0.6533879042 0.6205997467
-0.3465288 -0.15272936 1.4640001 0.6784178615 -0.1730118692 0.7140140533
-0.34595281 -0.096449994 1.467 0.8330075145 -0.1803754419 0.5230326653
-0.06723661 -0.22689208 1.149 -0.6104005575 -0.4374298453 0.6603531837
-0.19466421 -0.12728147 1.2669332 0.345132947 -0.819129765 0.4581589699
-0.27381799 -0.36521125 1.1748949 0.4596738815 0.04809403047 0.8867845535
-0.30899781 -0.19140351 1.427 0.4678209722 0.2311273664 0.8530672193
-0.12438497 -0.23590338 1.1358336 0.1088971123 -0.4677329957 0.8771358132
-0.19670208 -0.14191042 1.25 0.4334518611 -0.7219804525 0.5393178463
-0.20511447 -0.024506679 1.3819234 0.411565721 -0.3270742893 0.8506680131
-0.10185859 -0.088977724 1.3355 0.4306352437 -0.6945801377 0.5762913823
-0.33675241 -0.23332126 1.2940832 0.5619632006 -0.59547925 0.5741096139
-0.35266668 -0.34321997 1.2565715 0.7771263123 -0.1436960548 0.6127202511
-0.12489811 -0.11552674 1.2657778 -0.002263020491 -0.9469629526 0.3213348091
-0.26571503 -0.18256028 1.274111 0.4174900949 -0.6707711816 0.6129992008
-0.29848266 -0.18526289 1.3045001 0.3518591225 -0.3284989893 0.8765178919
