# .PCD v0.7 - Point Cloud Data file format
VERSION 0.7
FIELDS x y z normal_x normal_y normal_z
SIZE 4 4 4 4 4 4
TYPE F F F F F F
COUNT 1 1 1 1 1 1
WIDTH 206
HEIGHT 1
VIEWPOINT 0 0 0 1 0 0 0
POINTS 206
DATA ascii
-0.21373975 -0.16548146 1.295125 0.8190592527 0.08935620636 0.5667075515
-0.40185523 -0.42107439 1.9930001 -0.341586113 0.7513810992 0.5645753741
0.020126512 -0.055734958 1.766 -0.2685937285 -0.9476271868 0.1728009284
-0.055448044 0.2059226 1.4235716 -0.5623637438 -0.6906836629 0.4546461105
-0.26278433 -0.0041711801 1.5860001 0.8724526167 0.3322480321 0.3583820462
-0.01334199 0.016104992 1.2247144 -0.1903681159 -0.5847026706 0.788595438
-0.16888545 0.051291138 1.427 0.3705395162 0.3758507967 0.8493742347
-0.058371976 -0.16260764 1.189 -0.16707775 0.6326755881 0.7561789751
0.00122032 0.040270559 1.3920001 0.4183006287 -0.7310185432 0.5391070843
-0.16410266 -0.018442728 1.2880001 0.7488863468 -0.1929083467 0.6339997053
-0.065310791 0.13176738 1.307 0.416739136 -0.5344535112 0.735314846
-0.18745455 0.18495254 1.4255 0.736541152 -0.1320726424 0.6633731723
-0.11231145 -0.045162696 1.177 0.3286044896 -0.07328277826 0.9416202903
-0.11829564 -0.24217127 1.273 0.2529912293 0.6200727224 0.7426339984
-0.25134909 0.08201918 1.5090001 0.8783451319 0.01039636787 0.4779139459
-0.22138025 -0.07060235 1.365 0.8255833387 -0.3504199386 0.4422872961
0.032461435 0.1439261 1.3972501 -0.6487003565 -0.5157060027 0.5596741438
-0.0092234099 -0.07276246 1.169 -0.1799518019 -0.2675231993 0.9465984702
-0.15512803 -0.12424821 1.2241111 0.3643884361 0.4766339958 0.8000257015
-0.22060527 -0.01174821 1.4890001 0.6749913692 0.4200927913 0.6065547466
-0.10043883 0.051874995 1.2590001 0.2069505304 -0.7646991611 0.6102513075
-0.0034505599 -0.021853546 1.312 0.4287449718 -0.7119623423 0.5561361313
-0.12402555 0.12402555 1.3870003 0.2646014392 -0.04016998038 0.9635208845
0.0032875 -0.071229167 1.25 0.2141431868 -0.7746934891 0.5949728489
-0.014305259 0.076505505 1.2833574 -0.2802894711 -0.6850590706 0.6724075079
-0.21300058 0.11419148 1.4449999 0.763043344 0.02902017161 0.6456955075
-0.19368371 -0.08947961 1.2920001 0.838909924 -0.4339872599 0.3284588158
-0.12500916 0.22182998 1.3980001 0.06019080058 -0.3872169852 0.9200217724
-0.20427254 -0.22281601 1.3430002 0.7847722769 0.5760292411 0.2287418991
-0.03690796 0.15607502 1.3730001 -0.6094337702 -0.6800867319 0.4075199366
-0.11511577 -0.18540628 1.2258234 0.4511053562 0.3320730031 0.8283908963
-0.076604009 0.02203677 1.197 0.3071407378 -0.6043066978 0.7351720929
-0.14377333 0.05865952 1.312 0.5930074453 -0.4874183536 0.6409099102
-0.081644259 -0.10384876 1.169 0.5286712646 0.1611039639 0.8333979845
-0.15571791 -0.042954914 1.2250001 0.7642816901 -0.1426438838 0.6289087534
0.04557709 0.11555289 1.4533845 -0.8123195767 -0.5776045918 -0.08068324625
-0.16272424 -0.19215745 1.2670001 0.7016628385 0.418087095 0.5769509673
-0.25501677 0.023668537 1.5283335 0.8809082508 0.1973150671 0.4301945865
-0.096683197 0.17635174 1.37 0.4580976069 -0.1089370027 0.8822014332
-0.051767167 -0.030024957 1.1810001 -0.03477632627 -0.5255146027 0.8500735164
-0.21779031 0.051548 1.47 0.6638832092 0.1629457772 0.7298682928
-0.23688994 -0.043029722 1.5500001 0.8535977006 0.1899930388 0.4850500822
-0.17169254 -0.24332584 1.2970001 0.7260745764 0.200630486 0.6576952934
-0.19119574 -0.0293245 1.3380001 0.8857870698 -0.2322308272 0.4018085301
-0.09557683 0.09558472 1.3460001 0.8040552735 -0.5148192644 0.2974158823
-0.12358783 0.0059890109 1.2258574 0.002557714004 -0.6614157557 0.75001508
-0.0054034814 0.17257152 1.4230002 -0.360691905 -0.7567619681 0.5451722145
-0.04666812 0.054085068 1.2437999 -0.4328606129 -0.5855044723 0.6854314208
-0.16749154 0.10321435 1.41 0.5832374692 0.2249937952 0.7805202603
-0.14712834 0.17509486 1.3870001 0.2001833618 -0.06372899562 0.9776836038
-0.077804171 -0.21368749 1.25 -0.2566768527 0.7453282475 0.6153070331
-0.030024957 -0.11906448 1.1810001 -0.08975677937 0.4866587222 0.8689689636
0.01059627 0.01766045 1.3430001 0.4006112218 -0.6909568906 0.6017385125
-0.1199017 0.077874303 1.4100001 0.2355496138 0.6745405197 0.6996510029
-0.066492528 0.085084006 1.2855 0.6610611677 -0.5651786327 0.4935293496
-0.11193279 -0.13449426 1.1970001 0.5881555676 0.2769938707 0.7598338127
-0.19138563 -0.13443351 1.2590001 0.7668196559 -0.02439108118 0.6413990259
-0.14208469 -0.083319977 1.197 0.5544295311 0.1852490306 0.8113511801
-0.018072678 0.11549079 1.315889 -0.3689662814 -0.6581715345 0.6562576294
-0.13668635 0.022407599 1.2780001 0.5300617218 -0.4725578427 0.7040764689
-0.18008925 -0.088407449 1.245 0.8458186984 -0.02178739756 0.5330253243
-0.18866567 0.0128344 1.4640001 0.4364913702 0.3663397729 0.8217484355
-0.0083949603 -0.02833299 1.197 -0.5224674344 -0.4836734533 0.7022020817
-0.075968429 0.13650577 1.3540001 0.8668535948 -0.1856863946 0.4626936913
-0.013401428 -0.093592227 1.2132 -0.9308738708 0.336245805 0.1428727955
-0.18390143 -0.20223428 1.307 0.6050969958 0.6149981022 0.5056035519
-0.23759016 0.1152843 1.4842001 0.8266620636 0.004434359726 0.5626811981
-0.17556594 0.14589241 1.4103125 0.659820199 0.01981224306 0.7511622906
-0.20140891 -0.068688586 1.3280001 0.8577894568 -0.3519845605 0.3745719194
-0.054463577 -0.073043428 1.16125 0.01595170423 -0.1246505156 0.992072463
-0.081467755 0.21035704 1.3870001 -0.295356065 -0.82948035 0.4740539193
-0.21801122 -0.1255562 1.302 0.8907188773 -0.213216722 0.4014454782
-0.15601413 -0.15497319 1.2518423 0.4052148759 0.3598258793 0.8404321671
-0.0084349951 0.046575841 1.2550001 -0.0528714098 -0.726364851 0.6852726936
0.0044815196 -0.038653109 1.2780001 0.3758228123 -0.7207276225 0.5825022459
-0.24524924 0.043803878 1.4960001 0.8248365521 0.2048538476 0.5269531012
-0.17501773 -0.055328187 1.2880001 0.8454553485 -0.2736373842 0.4586151838
-0.16124004 0.21047364 1.404 0.5246130824 -0.2798275054 0.8040383458
-0.10293957 -0.0073410817 1.1964285 0.4653948247 -0.6231399775 0.6285731792
-0.19888498 0.073473431 1.4450001 0.6093099713 0.3483049273 0.7123377323
-0.078011937 -0.19128954 1.2190001 -0.08638994396 0.7392274737 0.66789186
-0.1639016 0.027029386 1.312 0.7384368181 -0.3475112617 0.5778814554
-0.13462944 -0.21506557 1.2530558 0.4646942914 0.4647337198 0.7537119985
-0.042771034 0.13417581 1.33675 -0.5313667059 -0.7443489432 0.4044676721
-0.00416592 0.13739331 1.3968002 -0.2045036554 -0.6470369101 0.7345212698
-0.23498875 -0.016021959 1.5230001 0.7738651037 0.5434920192 0.325191021
-0.088708729 0.027047506 1.2340001 0.4513771534 -0.7128129601 0.5368019938
-0.036459867 -0.0014752547 1.202 -0.2679538131 -0.6381066442 0.7218176126
-0.040617719 0.1784718 1.404 -0.5350784063 -0.6841461658 0.4956159294
-0.10431585 -0.082827263 1.189 0.2762842178 0.1483818889 0.9495524168
-0.20901924 0.15074721 1.4450001 0.7647201419 -0.09776520729 0.6369026899
-0.27162904 0.03958413 1.557 0.88759619 0.2612240911 0.3793875873
-0.11339158 0.085646816 1.376 0.6515748501 0.16109851 0.741280973
-0.19008587 -0.17007683 1.268 0.5419151187 0.4139456749 0.7314211726
-0.06392704 0.17563353 1.3575714 -0.09517969936 -0.6737665534 0.7327888608
-0.096422337 -0.16511346 1.2038182 0.5285600424 0.3316725791 0.7814202309
-0.086557098 0.09550494 1.3125558 0.4311603308 -0.7417742014 0.5136845708
-0.13461219 -0.02390236 1.2054285 0.4619883299 -0.2453172803 0.8522829413
-0.13230741 -0.15166947 1.2270001 0.6996522546 0.2760363817 0.6590073109
-0.10233 0.074353091 1.2850834 0.3470671773 -0.7349514365 0.5825725794
-0.079721436 -0.13770066 1.1810001 0.4284248054 0.2877816856 0.8565242887
-0.22761597 0.084733352 1.4740001 0.7711346149 0.1008458138 0.6286346316
-0.079721436 -0.052802514 1.1810001 0.406488955 -0.1229572743 0.9053442478
-0.21603698 -0.20296104 1.2970001 0.1184156537 0.7462004423 0.6551050544
-0.23063171 -0.14950497 1.322 0.8379362226 -0.01953310892 0.5454185009
-0.025989369 -0.15175684 1.1856667 0.1469131857 0.6318446398 0.7610446215
-0.24813493 -0.0086202631 1.5523334 0.8078351617 0.4119050801 0.4215881824
-0.050391678 0.028948409 1.223 -0.5679686666 -0.5546837449 0.6080604792
-0.14469646 0.098490871 1.3870001 0.4342148006 0.3447420597 0.8322321773
-0.10115631 0.14423822 1.3760002 0.51164639 0.07337610424 0.8560571671
-0.18881647 0.042854976 1.452 0.5582717061 0.2936614752 0.7759482265
-0.12835276 -0.10925896 1.21 0.473549217 0.3813092709 0.7939485908
-0.26221013 0.054849524 1.526 0.8825929761 0.1343645751 0.4505283237
-0.1552344 -0.2264443 1.2753075 0.6346523166 0.2693646252 0.7243335843
-0.038825288 0.10331254 1.2950001 -0.4119307399 -0.6397932172 0.64882797
0.042177662 0.12553008 1.4234 0.3266660571 -0.7804358006 -0.5331127644
-0.1813461 -0.007284516 1.312 0.8249976635 -0.1951619685 0.5303683877
-0.041781932 0.076171808 1.2653333 -0.4638580084 -0.543019712 0.6999752522
-0.15423432 0.074780002 1.4126923 0.3843858838 0.5644913912 0.7304772139
-0.21455236 -0.10416091 1.324182 0.7876201868 -0.4452129304 0.4259576797
-0.22141707 0.016832877 1.4770001 0.6126452088 0.2883622944 0.7358756661
-0.15199208 0.14469646 1.3870001 0.392139405 0.1204565614 0.9119851589
-0.1044493 -0.21281177 1.234154 0.07677548379 0.6575981379 0.7494465709
-0.021535316 0.18621714 1.4450001 -0.5350557566 -0.7107003927 0.4567496777
-0.16136716 -0.095110439 1.2190001 0.7538640499 0.06264650077 0.6540369987
-0.12232323 0.19236118 1.3870001 0.3102714121 -0.1767943799 0.9340639114
-0.14605157 -0.1837856 1.24325 0.6319109201 0.1108092964 0.7670788169
-0.054044642 -0.11523638 1.1632402 0.006696128286 0.3528703451 0.9356482625
-0.01773935 0.14546266 1.3490001 -0.02473727427 -0.8176195621 0.5752271414
-0.025795914 -0.044368979 1.177 -0.3344257176 -0.4152456522 0.8460085392
-0.19140351 0.097578257 1.427 0.6499263644 0.1882041991 0.736325264
-0.07309857 0.0624341 1.2672001 0.5783408284 -0.6415987015 0.5038581491
-0.097064152 0.11522362 1.3706667 0.6923481822 -0.2868034244 0.6621161103
-0.19271326 -0.10551998 1.267 0.8537203074 -0.2052140683 0.4785904586
-0.072704382 -0.0059935497 1.189 0.1119405404 -0.3144605458 0.9426472783
-0.19050404 -0.22860485 1.317 0.8385009766 0.08661524951 0.537972033
-0.12243595 0.053666729 1.286 0.6535840034 -0.4153166115 0.6327243447
-0.22677876 0.13546166 1.467 0.8430754542 -0.07064595819 0.5331349969
-0.025628619 -0.094542794 1.1616666 -0.1982056201 0.1550865024 0.9678133726
-0.18533467 -0.044676572 1.3151251 0.8644760847 -0.2956494391 0.4065372348
-0.13706522 -0.055697992 1.1950001 0.677470386 -0.1329204142 0.7234404087
-0.064977661 0.15454735 1.3355001 0.3703445196 -0.675237298 0.6378868222
-0.17327493 0.17382197 1.4040002 0.6854650378 -0.09174969792 0.722301662
-0.020924279 0.15877835 1.404 -0.5834032297 -0.6257878542 0.5177163482
-0.19444792 0.12498648 1.4257144 0.6798166037 0.03046370111 0.7327491641
-0.12473524 0.15516911 1.3850001 0.262491554 0.04724993184 0.9637767673
-0.078295976 0.11218528 1.3330001 0.8409182429 -0.4410850406 0.3135290444
-0.24261801 0.0060852938 1.5090001 0.832377851 0.3182449341 0.4537260234
0.013191641 0.15707748 1.4108334 0.03733324632 -0.6026175618 0.7971563935
0.01046214 -0.0034838736 1.3260001 0.4857674837 -0.6743447185 0.556137681
-0.00119665 0.02752295 1.365 0.4183006287 -0.7310185432 0.5391070843
-0.071834944 0.043958697 1.223 0.2993417084 -0.7249134779 0.6203990579
-0.38554224 -0.40464568 1.9810001 -0.341586113 0.7513810992 0.5645753741
-0.099698037 0.22032036 1.404 -0.09482757747 -0.8037831783 0.587316215
-0.1113279 0.032743499 1.245 0.2114129364 -0.7527109385 0.6234828234
-0.052059095 0.17796947 1.381 -0.6680894494 -0.6512300968 0.3599385917
-0.1512513 0.00112038 1.2780001 0.7297168374 -0.256729424 0.6337217689
-0.13171917 0.0010537533 1.202 0.06418228149 -0.5042396784 0.8611753583
-0.02405503 0.040525146 1.2360001 -0.1173584759 -0.6711203456 0.7320002913
-0.036555953 -0.16355655 1.2052001 -0.2905697227 0.5884545445 0.7545133829
-0.19201756 -0.066509441 1.3048573 0.8387006521 -0.3357792199 0.4287581742
-0.16395363 -0.066404723 1.225 0.8213757277 -0.1312026531 0.5550925732
-0.093439735 -0.024330568 1.181 -0.04988429323 -0.3010420203 0.9523052573
-0.17790635 -0.11896805 1.245 0.8065168262 0.0620216839 0.5879488587
-0.019405017 -0.13992038 1.1650001 0.7082271576 0.4292846918 0.5604720712
-0.16218509 0.12514535 1.398 0.5614854097 0.09959005564 0.8214718103
-0.0095721474 -0.0053150547 1.2132002 -0.4208048582 -0.571793139 0.7042555213
-0.19489071 -0.19127746 1.2880001 0.3118775785 0.6714055538 0.67227
-0.034690574 0.19291803 1.4234 -0.5355657935 -0.7338061929 0.4179686308
-0.21640679 -0.083360098 1.3447144 0.8024173379 -0.404819876 0.4384601712
-0.093925841 0.014371196 1.214 0.5088577867 -0.6731770635 0.5365597606
-0.17462787 0.075526096 1.4257144 0.4399495423 0.4936101139 0.7501956224
-0.20350721 -0.20525353 1.3265001 0.4757695794 0.7512605786 0.457439512
-0.10463706 0.20806341 1.3809999 0.225561291 -0.5528284311 0.8021863103
-0.23680331 0.064447649 1.4829999 0.7160940766 0.08606019616 0.6926780939
-0.22631325 0.10652552 1.4640001 0.8308088183 0.02393895574 0.5560427904
-0.14573869 0.20375624 1.3870001 0.2345155776 -0.2611895502 0.9363666177
-0.20416515 -0.041545235 1.3540001 0.8389199376 -0.2858537436 0.4631424546
-0.083132878 -0.075681083 1.175154 0.5933899283 -0.1323231161 0.793964088
-0.062537014 0.11029255 1.2970001 0.4846125841 -0.4864600003 0.7269850969
-0.055145938 -0.14227882 1.177 -0.1648614556 0.5044443607 0.8475592136
-0.20615256 -0.14531538 1.2850001 0.8686167598 -0.01048617717 0.4953735769
-0.042556908 0.12767071 1.312 -0.5058880448 -0.6021139622 0.6176860332
-0.19448291 0.15522066 1.427 0.7402364016 -0.04977966473 0.6705013514
-0.094530165 -0.11529765 1.1848397 0.5710473657 0.130898267 0.8104138374
-0.053037897 0.015570039 1.204 -0.5300529599 -0.5639518499 0.6332473159
-0.07094425 0.051298149 1.245 0.5354706049 -0.7480614781 0.3920143545
-0.061131719 0.194883 1.4039999 -0.6350851655 -0.6769065261 0.3721080124
-0.0075603737 -0.081004001 1.2320001 -0.975569725 0.1933437586 0.1043165401
-0.068080619 0.19340099 1.3745 -0.3830904961 -0.6406485438 0.6654405594
-0.1709528 -0.21521536 1.2880001 0.7976413369 0.1010380909 0.5946087837
-0.20384811 -0.11525127 1.2846667 0.8389293551 -0.2411191612 0.4879129529
-0.11537997 -0.15503992 1.2118665 0.6491684914 0.3274364173 0.68656075
-0.10545263 -0.22736984 1.2518182 0.07269190997 0.6919605136 0.7182663083
-0.08480259 0.15580383 1.3649999 0.6344342828 -0.006329067517 0.7729508877
0.029015036 0.10975253 1.439 -0.3452297151 -0.8588138819 -0.3784906566
-0.064423084 -0.044990707 1.1664002 0.2933234274 -0.3976851404 0.8693721294
-0.14478858 0.03474189 1.2950001 0.5284513235 -0.5118433833 0.6773149371
-0.016447885 0.096316665 1.3043078 -0.2938423157 -0.671741128 0.6800150871
-0.067237407 -0.17601712 1.2046667 -0.09707406163 0.677583158 0.729011476
-0.17354053 -0.1427374 1.245 0.5166281462 0.3993226588 0.7573881149
-0.20266657 -0.086921319 1.3150001 0.8295863867 -0.3497177362 0.4352975488
-0.051041286 0.15787189 1.3540001 -0.5914868712 -0.5977041125 0.5411959887
-0.026017576 0.055873878 1.2649231 -0.1624440998 -0.6952893138 0.7001318932
-0.25770843 -0.0206718 1.572 0.8417285681 0.3114014566 0.4410465956
-0.13327788 -0.2004586 1.2360001 0.4411417544 0.4790657163 0.7588741779
