# .PCD v0.7 - Point Cloud Data file format
VERSION 0.7
FIELDS x y z normal_x normal_y normal_z
SIZE 4 4 4 4 4 4
TYPE F F F F F F
COUNT 1 1 1 1 1 1
WIDTH 206
HEIGHT 1
VIEWPOINT 0 0 0 1 0 0 0
POINTS 206
DATA ascii
-0.1791144 -0.01863618 1.1810001 0.4524856508 0.2706602216 0.8497056961
-0.45282462 -0.4913629 2.1980002 -0.1068646088 0.812797904 0.5726599693
0.1024122 -0.22359997 1.9470001 -0.08102758974 0.9243096113 0.3729427755
0.128344 0.15016247 1.4640001 -0.7541581988 -0.3001758158 0.584071815
-0.32189885 -0.21955152 1.8830001 -0.1068646088 0.812797904 0.5726599693
-0.30575681 0.068555333 1.5640001 0.8174189329 -0.571470201 0.07244395465
0.075450726 -0.10713778 1.3160001 0.3637409508 -0.6506268382 0.666616261
-0.13761474 0.20702045 1.365 0.1800414324 -0.8758359551 0.4477683306
-0.27623063 -0.31355911 2.1290002 -0.02731822804 0.7990225554 0.600680232
0.012184497 0.10356501 1.2263335 -0.705360353 -0.4609358013 0.5385210514
-0.066138111 -0.20342012 1.1761429 -0.08292371035 0.5229011178 0.8483501673
0.014741872 -0.05372734 1.1666472 -0.4714946449 0.3267712593 0.819092989
-0.19391866 -0.16067547 1.2640001 0.4711967409 -0.291962564 0.8323049545
0.023602204 0.20407574 1.3573335 -0.3654088974 -0.7386493683 0.5664569139
0.087838493 0.044512749 1.3540001 -0.6591351032 -0.4654978812 0.5906375051
-0.21120653 0.11004972 1.268 0.4021081626 -0.6689693332 0.6251311898
-0.076072752 0.047672257 1.1570001 0.03652280569 0.3656032681 0.9300539494
-0.095962033 0.14915116 1.2640001 0.1766042262 -0.7691572905 0.6141726375
0.02493945 -0.15509076 1.2229997 -0.5626962185 0.4512672722 0.6926260591
-0.094324082 -0.094329335 1.1844997 0.1308237016 0.6519741416 0.7468700409
0.063532323 0.0090767145 1.2423334 -0.7233237028 -0.5118368268 0.4634931982
-0.22142759 0.19390552 1.427 0.3865832686 -0.8737721443 0.2950857878
0.067117602 -0.040270559 1.3920001 0.6484271884 -0.5740033388 0.5000623465
0.046182796 0.11892071 1.317 -0.9518477321 0.1045715883 0.2881851196
-0.16475108 0.070307791 1.197 0.3959332108 -0.6000534892 0.6951062679
-0.23138739 0.02728625 1.245 0.72584939 -0.4617452621 0.5098372102
0.011956272 0.032452736 1.169 -0.5602487326 -0.140145734 0.816382587
-0.016033882 0.17185612 1.2880001 -0.2107366174 -0.7952821851 0.5684332252
-0.056659549 0.22826822 1.3850001 0.08124537766 -0.8921669722 0.444339186
0.087863043 0.12447264 1.3920001 -0.9406425357 -0.01735421456 0.3389549553
-0.14501218 -0.17531459 1.1946 0.7071887851 0.2982327342 0.6410470009
0.044662714 -0.072983846 1.2426 0.3236654401 -0.5832030177 0.7450603247
-0.20472798 -0.092286699 1.21 0.5827174783 0.4359197617 0.685867548
-0.20371497 0.16625413 1.3355 0.2721306086 -0.7840484381 0.557864666
-0.42646414 -0.44149372 2.1430001 -0.1068646088 0.812797904 0.5726599693
0.12582007 0.063532911 1.4210001 -0.1129839495 -0.3599627316 0.9261001348
-0.065361343 0.1059627 1.2046669 0.1448559612 -0.7751950026 0.6148898005
0.072253108 0.19184446 1.4210001 -0.8646345735 -0.4431605339 0.2366766334
-0.05446947 -0.025257953 1.1646526 0.04002287611 0.06970643252 0.9967643619
-0.024865072 -0.11500378 1.1817999 0.0871277377 0.4321728945 0.8975719213
-0.075123757 0.19405718 1.3235002 0.08999840915 -0.8531653285 0.5138183236
-0.073979266 -0.1490307 1.223 0.04273441061 0.4473216236 0.8933516145
0.048892576 0.048892576 1.2970001 -0.4370881319 -0.817394495 0.3752601743
-0.14423643 0.17056142 1.3057501 0.1789306551 -0.7977830768 0.5757829547
-0.26249591 -0.32042605 2.0650001 -0.004236028995 0.8008118868 0.5989009738
-0.11544076 -0.0051068636 1.1653204 0.2302341461 0.02727911994 0.9727528095
-0.23221147 -0.03888192 1.2320001 0.6261176467 -0.2249926925 0.7465621233
0.08882124 0.012510033 1.427 0.7859472036 -0.4333127439 0.4410521686
-0.14509992 0.11563311 1.2424738 0.2612507343 -0.6830400229 0.6820589304
-0.11451458 -0.18793541 1.25 0.1106637716 0.5986974239 0.7932937145
-0.15557857 -0.075211719 1.17524 0.2214169204 0.191591233 0.9561733007
0.11501364 -0.0060176598 1.37375 0.5868937969 -0.5392938852 0.6039186716
-0.023570936 0.080961041 1.169 -0.2508604527 -0.4373214245 0.8636081219
0.05289251 -0.14265968 1.2746667 -0.3051761091 -0.7726746798 0.5566340089
-0.016504591 -0.17375498 1.181 -0.5300688744 0.07015784085 0.8450472951
0.053741418 -0.030558847 1.202 -0.8547456264 -0.1435707808 0.498795867
-0.035491496 0.1378227 1.2418001 0.06810537726 -0.7818435431 0.6197437644
0.091834337 -0.060045529 1.3430001 0.4800515175 -0.6166970134 0.6238873005
0.064930759 0.16143334 1.3590001 -0.626855433 -0.3503781855 0.6959075928
-0.17477928 0.21416616 1.404 0.2899676263 -0.8946983814 0.3397551477
0.034368839 0.050474085 1.2250001 -0.9201805592 -0.2312477827 0.3158990741
-0.13427202 -0.12475668 1.206 -0.1522408724 0.4434957802 0.8832520843
-0.025101772 0.20245633 1.3380001 -0.006730025169 -0.8528029323 0.5221895576
-0.11461556 0.088335648 1.2034545 0.1020919383 -0.740008235 0.6648045182
0.022009943 0.13317128 1.268 -0.7374842763 -0.4421216547 0.5105344653
-0.21033074 -0.11585062 1.2830001 0.4681170583 -0.2784707844 0.8386420012
-0.12569885 0.051363025 1.1684285 0.2412086278 -0.1977696866 0.9501081705
-0.19461 0.022936592 1.2052941 0.4337005317 -0.4058936238 0.8044589758
0.027056782 0.16866343 1.3132501 -0.5553939939 -0.6481602788 0.5209853649
-0.04567638 -0.074208386 1.1621667 0.1180627123 0.4062635005 0.9060966969
-0.19980986 0.078843892 1.2320001 0.388425976 -0.6578008533 0.6453086734
-0.1851532 0.14678437 1.2942727 0.2806081474 -0.7392480969 0.612185657
0.065285362 0.093773521 1.3540001 -0.7826981544 -0.06818183511 0.6186556816
0.13047868 0.10514302 1.4450001 0.9889156818 -0.1407727301 -0.04721071571
-0.035123147 0.017346976 1.1541427 -0.003938586451 -0.3972010911 0.9177231193
-0.10505666 0.224172 1.3935001 0.1405721903 -0.9016949534 0.4088833928
-0.10760645 -0.1793441 1.169 0.3843194842 0.2770138383 0.8806598783
-0.11590265 -0.054510839 1.1690001 0.0940951705 -0.07403647155 0.9928064942
-0.18452342 0.19457528 1.365 0.2015943676 -0.8506851792 0.4854836762
-0.0055691125 0.22833362 1.381 -0.08749067038 -0.8489117026 0.5212430358
0.015489141 -0.10494031 1.2326669 0.02825785242 -0.5145546198 0.8569918871
-0.15504436 0.017624633 1.1824285 0.307076782 -0.413333565 0.857239306
-0.06661965 0.17050114 1.2880001 0.04040983319 -0.8243765235 0.5645975471
-0.005119347 -0.015356639 1.1680403 -0.2566263974 -0.1750757545 0.9505216479
0.041233141 0.012687121 1.2060001 -0.8083789349 -0.405980438 0.4262667894
0.086331502 0.076604009 1.3870001 -0.7631670833 -0.4651845694 0.4485301673
-0.095044695 0.11988592 1.2320001 0.1840261668 -0.7271210551 0.6613844037
-0.22472079 0.1275138 1.3045001 0.4357121289 -0.6501210928 0.622492969
0.0060767611 0.065730654 1.1951334 -0.5189530849 -0.396956116 0.7570426464
-0.16578467 -0.1462806 1.2360001 0.8074697852 0.2153607458 0.549192369
0.055416729 -0.084109746 1.3450001 0.5857951641 -0.5536985993 0.5918292999
-0.2868506 0.054957356 1.529 0.8216504455 -0.5653091073 0.07291211188
-0.19495283 -0.055101611 1.1934446 0.5481021404 -0.1796907037 0.8168814182
0.082107723 0.028119083 1.2830001 -0.5562059283 -0.6677111983 0.4947693944
-0.024300851 0.11199592 1.2052001 -0.01746224985 -0.7656780481 0.6429868937
-0.036186039 -0.16319832 1.2166922 0.395647049 0.483407855 0.7808842659
-0.11449574 -0.15535083 1.2229998 -0.06574633718 0.4808944464 0.874309957
0.12270857 0.035408348 1.3927501 0.7387458682 -0.2212735564 0.636625886
-0.13429752 0.14659192 1.2744999 0.1527064592 -0.7985470295 0.5822399855
0.011504496 -0.10354047 1.1930001 -0.5711299181 0.5212785602 0.6340972185
-0.17244647 -0.11088344 1.197 0.3358507752 0.4893605411 0.8048170805
-0.10524107 0.17616819 1.3048573 0.1574919373 -0.8034172654 0.5742098689
-0.086076386 0.21061742 1.3573335 0.09479136765 -0.8926310539 0.4407089353
-0.07738775 0.081515096 1.177 0.1544924974 -0.7019817233 0.6952364445
0.059598431 0.059598431 1.3330001 -0.5927330852 -0.6001311541 0.5371313691
-0.065499663 -0.11799134 1.2028888 0.2227287591 0.5708728433 0.790250659
-0.078331918 -0.18168654 1.2410001 0.05462129042 0.372895807 0.9262641072
-0.050044518 -0.16851725 1.1650001 -0.3407287002 0.1714224219 0.9244015813
-0.075058445 0.0050715143 1.1569998 0.1900182068 -0.1164060682 0.9748552442
0.052059095 0.20944706 1.381 -0.6466576457 -0.6761324406 0.3530988693
-0.1633933 0.18214521 1.3370001 0.2893688977 -0.8231720924 0.4885216057
-0.11473726 0.19493735 1.3355 0.1595638543 -0.848757863 0.50413239
-0.2220246 -0.0021145199 1.2060001 0.844743073 0.1992816329 0.4966849387
0.031986937 -0.0082546938 1.177 -0.5576286316 -0.4248324633 0.7131392956
-0.17637713 0.12091103 1.2653333 0.302125752 -0.7529138327 0.5846715569
0.051134214 -0.047799371 1.268 0.9312193394 -0.3598885238 0.05753945932
-0.035065416 0.04582249 1.1764287 -0.2618094683 -0.190443337 0.9461433291
-0.0053306408 -0.083726056 1.1668949 -0.3226014674 0.4869897664 0.8116460443
-0.025311995 -0.045565523 1.1549199 0.08749643713 -0.09509703517 0.9916152954
0.086452313 -0.0063656522 1.3967999 0.6221142411 -0.5965912938 0.507003665
-0.14445715 -0.035082445 1.177 0.1843850166 0.176454559 0.9668846726
-0.074313641 -0.054971032 1.1611999 0.1801664382 0.02089317515 0.9834142327
-0.0022431393 -0.14595035 1.1952858 -0.706864357 -0.02407412417 0.7069393396
0.038563691 0.08881335 1.3330001 -0.8207027912 -0.01543926168 0.5711467266
-0.0983769 0.027079361 1.1730002 0.09433963895 -0.06575193256 0.9933663607
0.094934233 -0.033905085 1.3649999 0.5270026326 -0.6297763586 0.5706574917
0.054328788 0.035262339 1.2648 -0.6777294278 -0.6411976814 0.3599283397
0.04188275 -0.12457784 1.2250001 -0.2777719796 -0.07085227221 0.9580306411
-0.1650766 0.094967417 1.225 0.3173757792 -0.7347500324 0.5995123386
0.032597389 0.10511818 1.2533334 -0.7516359687 -0.5007209182 0.4293272793
-0.044526488 0.18695034 1.3136667 0.0390034616 -0.8596284986 0.5094286799
0.057649598 -0.062453732 1.3700001 0.5981795192 -0.6219434738 0.5053390861
-0.0060040206 0.14368764 1.2540771 -0.3062909842 -0.7905904055 0.5302383304
0.062542275 0.12507929 1.3460001 -0.8328016996 -0.04386843368 0.5518304706
-0.053927798 0.21310768 1.3550001 0.04684420303 -0.873075366 0.485329777
0.072812423 0.17775995 1.3920001 -0.8462626338 -0.4627144337 0.2640736997
-0.20834158 0.04438797 1.2250001 0.7794517279 -0.2555569112 0.5719664693
-0.065555491 0.14581981 1.2541251 0.106334269 -0.8102329969 0.5763814449
-0.14430021 0.21768773 1.3950001 0.1934803277 -0.9048822522 0.3791483343
0.0046463334 0.18817914 1.325 -0.2647132277 -0.8118509054 0.5204085112
-0.22206667 -0.061627917 1.2120001 0.6678673029 -0.0635753274 0.7415601611
0.052682698 -0.11863083 1.2970001 -0.09043095261 -0.7563144565 0.6479279995
0.033913169 0.14510411 1.2942222 -0.6786857247 -0.490116775 0.5469654799
-0.12530318 -0.094615683 1.1859522 -0.0854646638 0.5861686468 0.8056687117
-0.094631545 -0.12533796 1.2099999 0.1127836555 0.4715124369 0.8746175766
-0.085001566 -0.025603056 1.1682003 0.1391751021 0.2147138864 0.966710031
-0.055544835 -0.095940322 1.1815 0.1831778139 0.6388177872 0.7472333908
-0.18402593 -0.083648257 1.1887892 0.4593094289 0.3900422752 0.7980613112
0.023883613 0.22138493 1.3850001 -0.2874702513 -0.7715956569 0.5674512982
-0.035320025 0.15682136 1.2656666 0.04907540604 -0.8177756667 0.573440969
0.043437079 0.18291034 1.34825 -0.5560805798 -0.5729134679 0.6021167636
-0.19731627 -0.026379604 1.2035999 0.7377872467 0.1445986629 0.6593642235
0.050249655 -0.11101668 1.3330001 0.3216561973 -0.6826184392 0.6561778188
-0.18712157 -0.12709445 1.268 0.4681170583 -0.2784707844 0.8386420012
0.032992475 0.086206138 1.2140001 -0.5800327659 -0.5554314256 0.5958673358
-0.14515303 -0.005108512 1.1660002 0.2469146699 -0.06515518576 0.9668443203
0.084927954 0.15139332 1.4039999 -0.9367944002 -0.2833197713 0.2052953988
0.043133404 0.11404381 1.2880001 -0.9277583361 -0.1363924146 0.3473638296
-0.14247739 -0.16359964 1.2270001 -0.3994201124 0.3331907988 0.8540769815
-0.044700239 0.092523821 1.1858001 0.07011523843 -0.7180857062 0.6924137473
-0.18122114 0.043332256 1.189 0.511705637 -0.01173594128 0.8590806723
-0.18957916 0.099720836 1.25 0.4049094915 -0.6492731571 0.6438110471
-0.038988873 -0.13804169 1.202 0.3663380742 0.4973599911 0.7864028215
0.027096502 0.045472018 1.1938888 -0.8516817689 -0.1567915082 0.5000545382
-0.21807083 0.055887498 1.25 0.7990966439 -0.2150952965 0.5614076257
0.021779031 -0.076746903 1.1830001 -0.5374726057 0.40822649 0.7378850579
-0.17507218 0.16457029 1.3147779 0.2995437682 -0.7910483479 0.533400476
-0.065019205 0.12723029 1.2320001 0.1248759106 -0.737617135 0.6635714173
-0.0065877116 0.01334798 1.1563333 -0.5391926765 0.01358560659 0.8420728445
-0.11040653 0.074292243 1.177 0.2260601223 -0.6648086309 0.711987555
-0.12450653 0.1073344 1.2243334 0.1960851997 -0.7729474902 0.6034092903
0.035519902 0.072185613 1.307 -0.9702666998 -0.2053100765 0.1281807125
0.050343897 0.15454844 1.3355 -0.8499906063 -0.2847154737 0.4432302713
0.0075899288 -0.1245876 1.2117144 -0.8264430761 -0.049877204 0.560806632
0.00784266 0.16021433 1.2780001 -0.3639164269 -0.7463082075 0.5573050976
-0.11569725 0.1337944 1.2509375 0.1937493384 -0.757606864 0.6232920885
-0.11311126 -0.20422146 1.1810001 0.4017901719 0.5150485635 0.7571589351
0.037337232 -0.050817735 1.1830001 -0.7143935561 0.3260863125 0.6191200018
0.074423186 0.046160243 1.3133638 -0.3105127513 -0.8528427482 0.4198107123
0.040383648 -0.14734575 1.245 -0.7986494303 0.3355907202 0.4995377362
-0.054411236 0.06460005 1.161842 -0.1249228567 -0.3624499142 0.9235931635
-0.0065953573 0.092007041 1.1881111 -0.5766687393 -0.4614653587 0.6741683483
-0.075579621 -0.082576729 1.1676667 0.1134315655 0.5436707735 0.8315980434
0.10400598 0.014770079 1.4040002 0.6415992379 -0.3802247643 0.6661677957
-0.15271184 0.044368975 1.177 0.4238087535 0.09038088471 0.9012310505
-0.0054663671 0.21073189 1.3550001 -0.1692562699 -0.8201238513 0.5465795994
-0.0056702802 0.1277163 1.2320002 -0.3597655594 -0.7267119288 0.5851995945
-0.15424463 -0.14538769 1.2105216 -0.05293809623 -0.06296105683 0.9966109991
-0.17335702 -0.17117412 1.2436666 0.7334840894 -0.218607828 0.6435928345
-0.13677569 0.076812848 1.193 0.2481181175 -0.6615818143 0.7076346874
-0.12424119 0.026918925 1.1810001 0.2412752509 0.1726015061 0.9549843073
-0.16335139 0.14094381 1.2780001 0.341873765 -0.70035851 0.6265941858
-0.037362654 -0.19092661 1.1730001 -0.3519591689 0.3173068166 0.8805913329
-0.033839587 0.22315851 1.3717144 0.01782833599 -0.8873354197 0.4607798159
0.073205829 0.066657573 1.3577502 -0.6984862685 -0.3723359406 0.611132443
0.12384933 0.12384933 1.427 -0.8341818452 -0.1974498779 0.5149312615
0.084007174 -0.084865026 1.3279997 0.383620888 -0.5177603364 0.7646955252
0.10690584 0.043756623 1.4125 0.6274567246 -0.27077353 0.7300546169
0.10708308 0.071388721 1.404 -0.7265847921 -0.349707365 0.5914214253
0.00931809 0.00931809 1.1810001 -0.5791879296 -0.07656303793 0.8115906715
-0.26933831 -0.31697637 2.0900002 -0.004236028995 0.8008118868 0.5989009738
0.0075761531 -0.17092369 1.2340001 -0.643145144 0.5039160252 0.5765699744
-0.18618852 0.066504091 1.2110909 0.4962575138 -0.5613137484 0.6623106003
-0.1990831 0.12822303 1.2830001 0.3665975332 -0.6862418056 0.6282343864
0.061029151 0.19146401 1.365 -0.7159696817 -0.4711708128 0.5151557922
-0.21544082 0.088324159 1.25 0.3554174602 -0.6518561244 0.6698970199
