# .PCD v0.7 - Point Cloud Data file format
VERSION 0.7
FIELDS x y z normal_x normal_y normal_z
SIZE 4 4 4 4 4 4
TYPE F F F F F F
COUNT 1 1 1 1 1 1
WIDTH 206
HEIGHT 1
VIEWPOINT 0 0 0 1 0 0 0
POINTS 206
DATA ascii
0.02043773 0.10111298 1.2270001 -0.1803408861 -0.6906216741 0.7003705502
-0.062395871 -0.3366093 1.8730001 0.5305275321 0.7711898088 0.3518619537
-0.12750416 -0.2665996 1.202 0.6979014874 0.3596076965 0.6193672419
-0.19556154 0.02939814 1.4580001 0.9270483255 0.05526851863 0.3708460331
0.001729538 -0.092752337 1.0625715 -0.3371617198 -0.0745530352 0.9384901524
-0.12663326 0.17578621 1.335 0.7642311454 -0.07416126132 0.6406643987
-0.15128256 -0.097373419 1.153 0.8748483062 -0.05434817821 0.481338501
0.021617284 -0.052449066 1.2128334 -0.7684235573 0.5452419519 -0.3350170851
-0.043700073 0.032497283 1.1184288 -0.05342924222 -0.6859478354 0.7256864905
0.10204926 0.096184358 1.3380001 -0.1085840464 -0.8410794139 -0.5299008489
-0.058240689 -0.201904 1.10725 -0.04306703806 0.7117153406 0.701146543
-0.12181021 0.03902657 1.3490001 0.5135798454 0.3645191193 0.7767634988
0.0046831537 0.18322948 1.3355001 -0.3973605633 -0.7458530068 0.534610033
-0.19223109 -0.17504141 1.2250001 0.8295301795 -0.08308511227 0.552246809
-0.065391876 0.10485065 1.2860003 0.5570592284 -0.142336607 0.8181841373
0.034367766 0.018121189 1.2830001 -0.8307992816 0.4001156688 -0.3868849576
-0.094149619 -0.055228453 1.084769 0.3691695631 -0.04322914034 0.928356111
0.01124851 -0.28764048 1.8330001 0.5305275321 0.7711898088 0.3518619537
-0.16718385 0.11226944 1.3920001 0.8877161145 -0.06169308349 0.4562390447
-0.073317133 0.05565932 1.1947143 0.2088574916 -0.7311185598 0.6494953632
-0.134885 -0.184423 1.1634763 0.5815057158 0.3008738756 0.7558611035
0.026204608 0.03621522 1.1644288 -0.2567016184 -0.6351285577 0.7285025716
0.014122377 -0.024062553 1.1058694 -0.446579814 -0.5346386433 0.7174454331
-0.1719377 -0.242929 1.2653333 0.6857721806 0.6511836052 0.325078994
-0.15809982 -0.011030219 1.3980001 0.6580517292 0.3189710379 0.6820743084
-0.062103067 0.18292177 1.2880001 0.3322066665 -0.3970086575 0.8555833101
-0.069116399 -0.12781799 1.08 0.6519078612 0.126263991 0.7477121949
0.043822989 0.12692609 1.2950001 -0.04248283803 -0.7018892169 0.7110180855
0.022865219 -0.090466738 1.1340001 -0.9538450241 0.2713364065 0.1286711395
-0.12340661 0.1047792 1.3280001 0.6813595295 0.04331903905 0.7306658626
-0.006688966 -0.15957963 1.09 -0.5232477784 0.4878383577 0.6987313628
-0.10071439 -0.0033021111 1.13 0.2813760936 -0.6428588033 0.7124325037
-0.094541363 -0.24160571 1.149 0.3336080909 0.5701138377 0.7507835031
-0.011096846 0.14761138 1.266 -0.5095432997 -0.7195494771 0.471820116
-0.018917007 0.082202993 1.177 -0.3286058307 -0.7063742876 0.6269398332
-0.10947374 -0.1370905 1.125 0.6666820049 0.397354573 0.6305905581
-0.034899924 -0.045271304 1.0759332 0.02968638577 -0.522800386 0.8519380689
-0.039961971 0.096124746 1.2320001 0.8716340065 -0.4268753827 0.2408975065
-0.18175404 0.055387799 1.4039999 0.9052996039 0.01288542897 0.4245781898
-0.15405552 -0.21556678 1.2134546 0.4237667024 0.7286216617 0.5380820036
-0.16781943 -0.14071815 1.189 0.9027661681 -0.02833705395 0.4291971922
0.044738054 -0.0055907951 1.2346667 -0.7162686586 0.6025364995 -0.3520071208
-0.087582946 0.064530998 1.3145001 0.5813981295 0.4229346812 0.6950557232
-0.13171099 -0.057480697 1.1240001 0.7433817387 -0.06184127927 0.6660024524
-0.094697028 0.14435537 1.3043808 0.4516045451 0.05315163732 0.8906336427
-0.1531712 0.074192308 1.3649999 0.7552172542 0.1110751405 0.6459947228
-0.062464092 -0.006375758 1.0961819 0.4392842352 -0.521666944 0.7313637733
-0.15074985 0.13887978 1.3540001 0.8241720796 -0.1703677326 0.5401067138
0.043238077 0.15542336 1.3330001 -0.2617068887 -0.7410984635 0.6182900071
-0.032313935 -0.30213529 1.8430001 0.5305275321 0.7711898088 0.3518619537
0.035445213 -0.057165153 1.1686 -0.6167394519 0.698081553 -0.3637507558
-0.093847312 0.20269161 1.3161666 0.4349094033 -0.3524013162 0.8286538124
-0.074781559 0.025661491 1.1553332 0.1717001498 -0.7691724896 0.6155426502
-0.10746004 -0.096360125 1.101 0.4539896548 0.2616490126 0.851723671
-0.049185384 -0.22685504 1.1450001 -0.3710332513 0.6825050712 0.6296992302
-0.097211532 -0.18493234 1.1243125 0.7323833108 0.243297711 0.6359409094
-0.054103483 -0.084882379 1.0639999 0.5378114581 -0.1074173898 0.8361939788
-0.13104326 -0.2280359 1.177 0.8410149217 0.1322033703 0.5246105194
-0.0032048742 0.01207718 1.1245 -0.1640006751 -0.6655688882 0.7280946374
0.018319264 0.067515172 1.194 -0.2639356554 -0.7262731194 0.6347167492
-0.019255107 0.18348984 1.2920001 -0.6322543621 -0.6506735682 0.4205690324
-0.01721072 0.13123174 1.2270001 -0.2601903975 -0.6565389633 0.7079954147
-0.025287665 -0.12502295 1.0628964 -0.2140861303 0.35379076 0.9104939699
-0.014786387 0.046387766 1.1554 -0.5098749995 -0.5881901383 0.6277418137
0.03795616 0.04830784 1.312 -0.9317159057 0.2116787732 0.2951228917
-0.17198884 -0.18241243 1.189 0.6999053359 0.2976461053 0.6492606401
-0.14427809 -0.14396547 1.147154 0.6247807145 0.3368158638 0.7044175863
-0.18498506 0.0050006318 1.4257144 0.8578880429 0.1583030671 0.4888437688
-0.05176156 0.14408085 1.278 0.5655417442 -0.07930352539 0.8208979964
0.083353467 0.12356734 1.3064445 -0.736248374 -0.5814797878 0.346149683
-0.044795617 -0.16229232 1.077 -0.00231273286 0.5348055959 0.8449719548
-0.14600761 0.023002857 1.381 0.4578408003 0.3609405458 0.8124676943
0.0042666658 -0.05552873 1.0765198 -0.4395775497 -0.4529013634 0.7756622434
0.015406066 0.15661672 1.3054616 -0.4520721138 -0.72940588 0.51341784
-0.081744783 -0.16156617 1.097 0.6207845211 0.3160964251 0.7174326777
-0.023180164 -0.013520172 1.1017499 -0.3688057065 -0.6187905073 0.6935997605
0.021969413 0.13293292 1.2531667 -0.396527648 -0.8197336793 0.413282603
0.04512291 -0.02833299 1.197 -0.7863749266 0.5299104452 -0.3175049722
0.0038263577 -0.11664984 1.0906668 -0.7083696723 0.407879293 0.5760615468
-0.045681056 0.20307486 1.3136667 -0.1823496372 -0.8748568296 0.4487473071
-0.0080951406 0.10173716 1.2046667 -0.4927328825 -0.6318972111 0.5982643366
-0.10668274 -0.033886235 1.1135 0.551353693 -0.3984631896 0.7329639792
-0.094960973 0.10525391 1.3049999 0.5639740825 -0.09717145562 0.8200554848
-0.037675627 0.10970256 1.2640001 0.8199488521 -0.2433362156 0.5181422234
-0.10309687 -0.26186472 1.1760001 0.5043878555 0.571578145 0.6472181678
-0.045572523 0.073467828 1.2052001 0.5886513591 -0.6749168634 0.444945842
-0.076495633 -0.084542498 1.09 0.4237044156 -0.06311126053 0.9035992026
-0.11434959 -0.21359897 1.1482002 0.669852674 0.2769239843 0.6889198422
-0.1275477 0.074566342 1.3430001 0.6420164704 0.2965734899 0.7070070505
-0.13125646 -0.11242145 1.1190001 0.6447375417 0.2381428927 0.7263618112
-0.048017662 0.045961 1.1754 0.522932291 -0.7396331429 0.4236563146
-0.15781665 -0.24212745 1.233 0.8618130684 0.3752142489 0.3413099349
-0.12270808 0.14366391 1.3280001 0.6992803812 -0.02527292073 0.7144005895
-0.086581349 -0.21635434 1.13 0.4534386694 0.4486635923 0.7701262236
-0.18375233 -0.20391442 1.2105715 0.6855456829 0.3996683061 0.6085165739
-0.11520199 -0.16513383 1.1473532 0.6557679176 0.2734069228 0.7037166357
-0.064261861 -0.045628298 1.09 0.05906652287 -0.0552554056 0.9967236519
-0.15019317 0.10761872 1.3490001 0.7610915899 0.1044446677 0.6401803493
-0.17354845 0.024616798 1.404 0.8461803794 0.1926612109 0.4968504906
-0.066020012 0.0075556976 1.1240001 0.5986468792 -0.6964648366 0.3956749737
-0.1838975 0.076311208 1.427 0.9464896917 -0.09547451884 0.3082885742
0.032363903 0.10825168 1.273 -0.6701010466 -0.5784114599 0.4651932418
-0.025121026 -0.075363286 1.0613198 -0.09147365391 -0.2061848491 0.9742280841
-0.18532909 -0.14561111 1.2243334 0.8988933563 -0.1688485444 0.4043277204
-0.073112249 0.07593511 1.2880001 0.634912014 0.1085961685 0.7649140954
-0.14437647 -0.20338023 1.1876668 0.544480145 0.6481519938 0.5323911309
-0.10594674 0.17503741 1.3135626 0.522238791 -0.1211471781 0.844150424
0.022168659 0.015491577 1.1436667 -0.3480513692 -0.625767827 0.6980507374
-0.085094906 -0.025483696 1.0941429 0.4666760564 -0.6081066728 0.6421991587
-0.17227814 -0.021222346 1.424 0.8203731775 0.1985166222 0.5362639427
-0.088906564 -0.12494107 1.101 0.6229777336 0.07291143388 0.7788341641
-0.15733896 -0.12511931 1.1645555 0.8603938222 0.02756592073 0.5088836551
-0.042234294 0.047260225 1.1470001 0.5276368856 -0.7225076556 0.4467459619
0.054998562 0.15010023 1.307 0.07017759234 -0.6914137006 0.7190425992
0.026817428 -0.027539801 1.2346668 -0.7587818503 0.5477019548 -0.3525232971
-0.16514716 0.045126874 1.3835267 0.7508648634 0.1856627911 0.6338227987
0.028702568 -0.0039655389 1.2662857 -0.7589487433 0.5090303421 -0.4060602486
-0.17270368 0.084760696 1.3932002 0.8883560896 -0.05360139161 0.4560157061
-0.14494181 -0.24508619 1.2042857 0.85278368 0.06264857203 0.5184931755
-0.15379612 -0.16433431 1.1665384 0.5930721164 0.3397670388 0.729947865
-0.19297333 0.053627163 1.4450001 0.9501271248 -0.01067337859 0.3116801381
-0.034663837 0.16549626 1.2755002 0.1030069441 -0.4996916354 0.8600568771
-0.13161273 -0.085833207 1.1253999 0.8119192123 -0.09700936079 0.5756530166
-0.11364271 -0.065701433 1.1053998 0.7601417303 -0.1513182521 0.6318918467
0.016805699 0.14228825 1.2780001 -0.5195849538 -0.7576860785 0.3948965967
-0.022020113 0.19354521 1.322 -0.5673421621 -0.753749907 0.3316382468
-0.033445712 0.13561185 1.2576667 0.7884801626 -0.4045724571 0.4632711411
-0.17581229 -0.22314177 1.2270001 0.3780531585 0.767586112 0.5175783634
-0.0031060299 0.05901457 1.1810001 -0.34659639 -0.6056782007 0.7162575126
0.01923845 -0.074926943 1.155 -0.5804204345 0.7191274166 -0.3820574582
-0.046596821 -0.18298735 1.0928181 -0.04700629041 0.5719852448 0.8189159632
-0.1218479 -0.020803301 1.13 0.3084015548 -0.4726381898 0.8255311251
0.026051026 -0.0056632664 1.2920001 -0.8144904971 0.4262770414 -0.3935646117
0.079967782 0.10314684 1.322 -0.09723354131 -0.8329885006 -0.5446795225
-0.071136236 0.12985186 1.2880001 0.5867605209 -0.008143917657 0.8097195625
-0.078757979 0.16436449 1.302 0.4815178812 -0.07400657237 0.8733060956
-0.14752984 0.044276055 1.3649999 0.646243453 0.316354841 0.694470346
0.0052727121 0.11596546 1.244 -0.385198772 -0.6671026945 0.6376487017
-0.10694019 0.085165732 1.3147779 0.6143037677 0.2297801822 0.7548721433
-0.0035037445 -0.032807786 1.09 -0.3277488947 -0.5362104774 0.7778553963
-0.034176704 0.06444069 1.1636667 0.2924020588 -0.7416277528 0.6037295461
-0.03315448 0.095238611 1.2044001 0.6293199062 -0.5900859833 0.5057222247
-0.18601027 0.033083208 1.424 0.9120409489 0.1057423428 0.3962320983
-0.069503009 -0.2417496 1.149 -0.2418183684 0.7145827413 0.6564261913
-0.011480437 -0.13661546 1.0813334 -0.6821069121 0.4158707261 0.6014829278
-0.10818642 0.054674696 1.335143 0.5906199813 0.3810226917 0.7113295197
-0.02746772 0.012752871 1.1190001 -0.6092461348 -0.4890173078 0.6242445111
-0.054155208 -0.11483897 1.0649998 0.4754723907 0.1474992633 0.8672773242
-0.0056206612 0.025898835 1.1448001 -0.2076549083 -0.6780229807 0.7050988078
-0.054308333 -0.2067665 1.1308889 -0.2653839886 0.7393128872 0.6188600659
-0.0044846372 0.17335261 1.3153335 -0.4416978061 -0.7385511994 0.5093576312
-0.10499047 0.12485091 1.3146192 0.5716935396 0.01565970853 0.8203178048
0.065165319 0.11651227 1.2919999 -0.4296419322 -0.3548631072 0.8303493261
-0.048777733 -0.13976696 1.0700001 0.2721219659 0.3188715875 0.9078934789
-0.097250536 -0.15622169 1.1143638 0.7450608015 0.296292156 0.597574532
0.014676763 -0.0037215475 1.1243334 -0.415163666 -0.5935085416 0.6894829273
0.022120053 0.16881093 1.3280001 -0.4664417505 -0.7089531422 0.5289778709
-0.15913692 0.096683182 1.3700001 0.8708209395 0.04664035887 0.489382863
-0.044393208 -0.024972601 1.0839285 0.1062087193 -0.3484679461 0.9312839508
-0.1348162 0.15458046 1.3460002 0.7287971377 -0.1374263614 0.6707971096
-0.15561184 0.13148597 1.376 0.9060462117 -0.1772643328 0.3842624426
-0.085392907 -0.013238943 1.1149092 0.3786826432 -0.72557199 0.5745822191
-0.074415959 -0.1848157 1.1047082 0.5341014266 0.3862472475 0.752029717
-0.025448799 0.034365419 1.1353335 -0.5434918404 -0.5389105678 0.6435775161
-0.01019388 0.16196942 1.2920001 -0.6553519368 -0.635804832 0.4077573717
-0.025162172 -0.1742163 1.0955 -0.3882053792 0.6119123101 0.6891008019
-0.045328379 0.014360715 1.1039582 0.08516375721 -0.6706393361 0.7368785739
-0.13342428 0.12482827 1.3363335 0.6059337854 0.02959751897 0.7949643135
-0.11374587 -0.24398147 1.1658571 0.5952111483 0.4804651141 0.6441094279
-0.076359786 0.19480093 1.3032501 0.3163504004 -0.5039682388 0.8037029505
-0.0019497066 -0.16475022 1.1120001 -0.5313352346 0.4320806265 0.7286900282
-0.073260404 0.040929522 1.177 0.2138867825 -0.7471344471 0.6293190718
-0.056770112 0.086576775 1.2752222 0.7175277472 -0.1644385904 0.6768410802
-0.070812747 -0.10480287 1.077 0.7314137816 -0.04977577925 0.6801148653
-0.01667946 -0.10470995 1.057 -0.1468139887 0.1293451935 0.980670929
-0.12883931 -0.045529682 1.105 0.6902189851 -0.1578575075 0.7061719298
-0.052070785 -0.056747798 1.067 0.4802642167 -0.3898994625 0.7857001424
0.0060312161 0.08429224 1.2040001 -0.4155688584 -0.6890771985 0.593696177
0.03423145 0.14565691 1.3141431 -0.3390539885 -0.7061463594 0.6216105819
-0.14180307 -0.12422542 1.136909 0.7365772724 0.2141121775 0.6415683031
-0.16510998 -0.20366375 1.1960771 0.4132232666 0.6287034154 0.6587705016
0.026541084 0.079092868 1.2110001 -0.3312133253 -0.7046923041 0.6274603605
0.044819027 -0.015198053 1.2147273 -0.7631183863 0.5538705587 -0.3329831362
0.042824291 0.038318664 1.2855 -0.8237660527 0.4052549899 -0.396456629
-0.083142713 0.011365457 1.1372001 0.3017908037 -0.7779505849 0.5511035919
-0.065089397 -0.15472044 1.0845453 0.5039978027 0.3093057871 0.8064218163
0.016304247 -0.050830886 1.0940001 -0.4757214487 -0.4650838673 0.7465829253
0.030330036 -0.051247302 1.1930001 -0.7252434492 0.6315458417 -0.27417472
0.0070896037 0.04153851 1.1556667 -0.1618875265 -0.7040299177 0.69147259
-0.031584021 0.11494801 1.2254002 0.6984674931 -0.4578432739 0.5500206351
0.034273576 -0.035126984 1.2142667 -0.7734945416 0.5174575448 -0.3659834862
-0.0028631936 0.10631891 1.2250001 -0.5275618434 -0.6361646652 0.5630035996
-0.15493639 -0.18406601 1.1762501 0.5353307128 0.4063332975 0.7404824495
-0.035312138 -0.094785206 1.0600001 0.1059686318 -0.05641076341 0.9927681088
-0.16232754 0.0066876514 1.3870001 0.6052383184 0.2236242294 0.7639887333
-0.017371854 -0.055974867 1.0654 -0.1607138664 -0.409517318 0.8980348706
-0.086367443 0.084591895 1.302 0.6080211401 0.1813376248 0.77293396
-0.085516661 -0.10472955 1.0960001 0.4843894243 0.1443045735 0.8628690839
-0.016902572 0.14341083 1.244 -0.324372232 -0.8016039133 0.5022089481
-0.13804169 -0.22234195 1.202 0.8484123945 0.1534520388 0.5066052675
0.016267953 0.055800237 1.1743335 -0.1092525274 -0.748576045 0.6539860964
-0.18079145 -0.17444789 1.2060001 0.8649413586 -0.1155249178 0.4883957803
0.044008005 0.0044028391 1.2550833 -0.7039461732 0.5561168194 -0.4418075383
-0.10922126 -0.18437353 1.1430001 0.7302652001 0.1245857775 0.6717076302
0.045576148 0.027790334 1.268 -0.6945861578 0.4958991408 -0.5211852789
-0.16257678 -0.144761 1.1677999 0.8379866481 0.03811121359 0.5443583131
