# .PCD v0.7 - Point Cloud Data file format
VERSION 0.7
FIELDS x y z normal_x normal_y normal_z
SIZE 4 4 4 4 4 4
TYPE F F F F F F
COUNT 1 1 1 1 1 1
WIDTH 206
HEIGHT 1
VIEWPOINT 0 0 0 1 0 0 0
POINTS 206
DATA ascii
-0.28533134 0.26182088 1.2190001 -0.3667964041 0.8242760301 -0.4313112199
-0.44523269 -0.41225249 2.0900002 -0.7985689044 0.6009886265 0.03317249566
-0.20847923 -0.011663173 1.6630001 -0.9646874666 0.05047961697 -0.2585148811
-0.2555294 -0.17108464 1.031 -0.06057844684 -0.5022801757 -0.862580359
-0.079451419 0.037146121 1.177 -0.4897147119 0.5146035552 -0.7038200498
-0.41530094 0.055689052 1.08 -0.8365420103 -0.04864189029 -0.5457392931
-0.065450884 0.23834042 1.2739999 -0.5545446873 0.5448821783 -0.6289544106
-0.2150467 0.035355862 1.0120003 0.125876233 0.2234175652 -0.966560781
-0.18736786 0.1658448 1.1160833 0.891138792 0.1934601814 -0.4104203284
-0.13514049 -0.085875325 1.094 0.1233834773 0.904443264 -0.4083611667
-0.40490267 0.17374644 1.1847143 -0.4147850871 0.6625648141 -0.6236675382
-0.37019879 -0.091839597 1.08 -0.3072322905 -0.6599743962 -0.685596168
-0.30450618 0.13155872 1.0543333 -0.3777633011 0.7386065722 -0.5583505034
-0.16387649 0.25548288 1.1948184 0.6699960232 0.5652843714 -0.4812057018
-0.097882755 0.11782867 1.2640001 -0.8487286568 0.4793747962 -0.2232923955
-0.3255938 0.0068142568 1.0254998 -0.1225468665 -0.5330296159 -0.8371748328
-0.13840234 0.063394047 1.0857999 0.6902403235 0.4048056006 -0.5997505188
-0.23472561 -0.066850312 1.0320001 -0.2377635986 -0.5959180593 -0.7670398355
-0.3033829 -0.1641406 1.1245 -0.1557255387 -0.639272213 -0.7530475259
-0.30502 0.19757578 1.1348 -0.3221822977 0.7764371037 -0.5416124463
-0.12443513 0.1251238 1.1752223 0.4066948295 0.5692598224 -0.7145226002
-0.37353674 0.13285863 1.1079999 -0.5516785383 0.5014252067 -0.6665009856
-0.19772963 0.11423373 1.046625 0.6948683858 0.3762642741 -0.6128483415
-0.12577164 -0.035075322 1.164 -0.4851394296 0.64203161 -0.5936625004
-0.42203757 -0.027446972 1.105 -0.6450734735 -0.2663428187 -0.7161994576
-0.23504721 0.2360615 1.1556667 -0.04731959477 0.8210956454 -0.568825841
-0.11335445 0.19595312 1.2236668 0.9664723873 0.01638216712 -0.2562474012
-0.17231937 -0.014100308 1.0905001 0.382407099 0.1190858334 -0.9162878394
-0.29466546 -0.09508948 1.0738695 -0.09231327474 -0.5304791331 -0.8426566124
-0.34502918 0.22458757 1.1947143 -0.4818279147 0.6669946909 -0.568295598
-0.35403869 0.074700698 1.0355002 -0.5545809269 0.3187334538 -0.7686670423
-0.25587532 0.17856561 1.082 -0.19423756 0.7512388825 -0.6308025718
-0.18745711 -0.12129577 1.031 0.6456671357 -0.06190564111 -0.7611055374
-0.27554062 0.073252507 1.0190002 -0.120976992 -0.04404874519 -0.9916775227
-0.43107891 0.11664488 1.1570001 -0.5658487678 0.6137270927 -0.5505943894
-0.14098816 0.061872505 1.1570001 0.8891851902 -0.4561160207 -0.03616495803
-0.38721544 -0.0053960085 1.0505716 -0.4930021167 -0.3654486239 -0.7895544171
-0.052364178 0.10152239 1.2190001 0.3573285043 0.3742334247 -0.8557252288
-0.1347342 0.25606447 1.2536 0.7282990217 0.5541056991 -0.4031717479
-0.18800008 -0.022464 1.0250001 0.7033005953 -0.4528689086 -0.547976315
-0.15746494 0.19450979 1.1659412 0.7965964675 0.2102493346 -0.5667709112
-0.33509082 -0.055183187 1.0413105 -0.1882897615 -0.3536897898 -0.9162153006
-0.11787845 0.07583835 1.214125 0.1479234993 0.8969776034 -0.4165931642
-0.23830518 -0.12199956 1.0830001 -0.2051637471 -0.4752753377 -0.8555823565
-0.084357247 0.17883737 1.2830001 0.4345327318 0.6689559817 -0.603058219
-0.26472497 -0.0055627241 1.0154378 -0.3605242074 0.09588082135 -0.9278088212
-0.22488254 0.27473855 1.21 -0.1134913713 0.8272895813 -0.5501924157
-0.33019736 -0.14498751 1.067 -0.1153842956 -0.7804313898 0.6145024896
-0.1638353 0.10815732 1.124125 0.4211079776 0.7786954641 -0.4650821686
-0.15741505 0.024610108 1.0467273 0.7841822505 0.1000752747 -0.6124076843
-0.25564718 0.12689318 1.0243077 0.08028268814 0.6552644372 -0.7511212826
-0.18445434 -0.065559193 1.0624348 0.6499091983 0.2623622119 -0.713291049
-0.357822 0.17891102 1.153 -0.5104303956 0.6671990752 -0.5424999595
-0.065652028 0.15427163 1.2327502 0.1469333321 0.2505716383 -0.9568826556
-0.32120889 0.16060446 1.097 -0.4022194445 0.6379697323 -0.656668961
-0.16206463 0.026332056 1.1242858 0.2607723475 0.6770213842 -0.6882149577
-0.28559947 0.23501833 1.1745001 -0.3284120858 0.7423131466 -0.5840519667
-0.22563688 0.20546347 1.1157368 0.20186086 0.7655701041 -0.6108638644
-0.28461897 -0.054390434 1.0339547 -0.122134015 -0.6619701385 -0.7395125628
-0.38211912 0.093742594 1.077 -0.5836298466 0.5368950963 -0.6091960669
-0.18617494 -0.12389153 1.0811428 0.2046939731 -0.8123600483 -0.546050787
-0.22474304 0.084227659 1.0149658 0.2805879116 0.5100157261 -0.8131140471
-0.41473866 0.095627666 1.114091 -0.5901768804 0.534314692 -0.6051438451
-0.086504199 -0.0064186607 1.1563333 -0.4453362525 0.473810941 -0.7597228289
-0.18134676 0.066292532 1.044 0.6121250987 0.5308109522 -0.5861250758
-0.16302244 0.14590532 1.153923 0.7195629478 0.1652044952 -0.6744899154
-0.21578091 0.1530136 1.0748461 0.5964052081 0.5381550789 -0.5955585241
-0.15263994 -0.081807025 1.138 -0.3445731103 0.7337498069 -0.5855600834
-0.23256183 -0.12834078 1.0190001 0.3980903029 -0.2059408277 -0.893930912
-0.11399911 0.0094127702 1.1930001 -0.6851447225 0.4584414959 -0.5660459995
-0.18663181 0.23024686 1.1570001 0.3692557514 0.6642178297 -0.6499729753
-0.10679027 -0.06082489 1.13 -0.2128042281 0.6675929427 -0.7134662271
-0.068761349 0.20191824 1.245 0.4772699475 0.4992443621 -0.7231655717
-0.39175689 -0.045725178 1.0755 -0.6423839927 0.1192565113 -0.7570473552
-0.088834144 0.12502995 1.2042857 0.7601796985 0.2829274833 -0.5848751068
-0.10615206 0.21344554 1.302 0.2430617809 0.501323998 -0.8304187059
-0.31508622 0.09477783 1.0250001 -0.3662804365 0.5367939472 -0.7600598335
-0.39540911 0.1425311 1.1476668 -0.5570925474 0.6685153842 -0.4926815331
-0.13155785 0.15859005 1.2044002 0.764778614 0.2903859317 -0.575143218
-0.37602282 0.036594335 1.0612502 -0.5821647644 -0.1626674384 -0.7966325879
-0.14564584 -0.044375654 1.0712916 -0.1129847988 0.3858293593 -0.9156255126
-0.29119897 0.033168178 1.0070001 -0.3039810658 -0.1240158677 -0.9445716143
-0.34326342 0.12290318 1.0742501 -0.4571917951 0.6853562593 -0.5668001771
-0.12103347 0.09802711 1.141 0.7739761472 0.3734329939 -0.5113791823
-0.42024508 0.012388176 1.087 -0.6441997886 0.3325504363 -0.6887792945
-0.28559422 -0.13558577 1.0968801 -0.0979219377 -0.5437554717 -0.8335114121
-0.17541449 0.0945419 1.084684 0.675365746 0.5832079053 -0.4513864219
-0.21872832 -0.0052494798 0.99800009 0.1097238883 -0.08662193269 -0.9901804328
-0.2671462 0.21561617 1.1359999 -0.3467269242 0.7620431781 -0.5468735695
-0.074085519 0.073665775 1.197 0.3250885308 0.3153743148 -0.8915472627
-0.13814864 0.22519636 1.2060002 0.7999972105 0.275865674 -0.5328250527
-0.1848776 0.2810567 1.2190001 0.2796788216 0.9079203606 -0.3121863902
-0.25634444 -0.086693831 1.0633001 -0.3107298613 -0.6080668569 -0.7305488586
-0.19137897 0.12982994 1.097 0.9016213417 0.3350587487 -0.2735225558
-0.34817913 -0.015648499 1.0500001 -0.342898041 -0.2695945501 -0.8998553753
-0.31557587 0.055587959 1.0324168 -0.1896605939 -0.1397708058 -0.971850276
-0.32451609 -0.13488442 1.1055415 0.0238962099 -0.664215982 -0.7471587062
-0.1544784 -0.095411785 1.0611249 0.3712582886 -0.309866935 -0.8752998114
-0.1019125 0.16985416 1.25 0.4540732503 0.7540647388 -0.4745565057
-0.25506109 0.044575576 1.0013332 -0.06602691114 -0.1386689544 -0.9881352782
-0.25497943 0.15409742 1.0525334 -0.2356022149 0.7589173317 -0.6070716977
-0.18317489 0.01467261 1.0116365 0.6290772557 -0.06120093539 -0.7749298215
-0.25561845 0.25823838 1.1950001 -0.2128835171 0.8407699466 -0.4977815449
-0.38930136 0.19730259 1.21 -0.4985401928 0.6811972857 -0.5361230373
-0.33393985 -0.089113168 1.0700001 0.05561438203 -0.6646004319 -0.7451263666
-0.31191099 0.24130951 1.202 -0.3341998756 0.8195024133 -0.4655386209
-0.28859779 0.17856385 1.1010001 -0.3119500875 0.7509795427 -0.5819938779
-0.21999949 -0.096038841 1.0500001 -0.6406529546 -0.4802133441 -0.5991318226
-0.29112259 -0.16792023 1.041 -0.5557536483 -0.1363372505 -0.820091486
-0.31566191 0.21474728 1.1657501 -0.3245316148 0.7484455109 -0.5783671737
-0.23492715 -0.036350649 1.0112417 -0.1017468348 -0.4416005015 -0.8914239407
-0.20518981 0.25634506 1.1853077 -0.003357623704 0.7282526493 -0.685300529
-0.28476167 0.15501262 1.0738695 -0.3657370806 0.6403020024 -0.6754626036
-0.34457213 0.035005026 1.0370626 -0.4699881077 0.313221693 -0.8252292871
-0.30341139 -0.024666687 1.0275713 -0.4337907135 -0.06226507202 -0.8988596797
-0.17348014 -0.0053955182 1.0554167 0.9464928508 -0.2949868441 -0.1308970004
-0.2182225 0.18582265 1.087 0.4845436811 0.5832671523 -0.6519331336
-0.19498967 0.19713603 1.13 0.5591648817 0.4880924225 -0.6701495647
-0.10410417 0.086570829 1.25 -0.5439872146 0.7373828888 -0.4004302323
-0.42130408 0.14421341 1.1750001 -0.4691784084 0.6272770762 -0.6216068268
-0.13694987 0.090978965 1.1057142 0.6165137291 0.5711287856 -0.5419619083
-0.11749788 0.22955604 1.2410001 0.7281605005 0.4549349546 -0.5126563311
-0.22883235 0.1338201 1.0455 0.5540020466 0.4300249219 -0.7128536105
-0.3650251 -0.045562889 1.0550435 -0.5348152518 0.005602581427 -0.8449504375
-0.34652811 0.1667385 1.1237501 -0.4517495632 0.7094028592 -0.5409897566
-0.25581396 0.27656114 1.2243334 -0.2721529603 0.8255229592 -0.4944134057
-0.14700375 0.0052680839 1.1032221 0.4635165334 0.5448446274 -0.6987823248
-0.20335723 -0.055858601 1.0322274 0.6473541856 -0.3466705084 -0.678787291
-0.28466204 0.10478777 1.0157781 -0.3055943251 0.5053439736 -0.8069941998
-0.11181883 0.19456697 1.2755001 0.4654902816 0.6419363618 -0.6092917919
-0.10010657 0.038988873 1.202 -0.6914779544 0.4471848607 -0.5673481226
-0.13359928 0.1948432 1.1962001 0.7965325713 0.2516544759 -0.5497325659
-0.15641066 0.26233706 1.2254 0.6622473598 0.626475215 -0.4110440612
-0.26129225 0.20106876 1.108 -0.284389466 0.7265551686 -0.6254919767
-0.15778042 0.22481416 1.1763334 0.7592588663 0.3244051933 -0.5641695261
-0.14768471 0.16554651 1.1753335 0.7964352369 0.1950497329 -0.5724041462
-0.075603738 0.11880587 1.2320001 -0.2469088137 0.5424540043 -0.8029817343
-0.35361382 0.20120919 1.1746 -0.4601188302 0.6863310337 -0.5632409453
-0.35176134 -0.11448858 1.0913334 -0.1781619936 -0.437781781 -0.8812521696
-0.096663699 -0.034689747 1.1479475 -0.3890661895 0.562097311 -0.7298452854
-0.38936272 0.06876573 1.0600001 -0.6310115457 0.4419394135 -0.6375845075
-0.29465005 0.0057765543 1.0270321 -0.1762990803 -0.2902677953 -0.9405654073
-0.40176055 0.12141658 1.126 -0.6045615673 0.5643253922 -0.5621762872
-0.18770617 -0.0944639 1.0461668 0.6951408386 0.0827312395 -0.7140971422
-0.09597075 0.15173064 1.2178888 0.4122535884 0.7363536358 -0.536498189
-0.1751333 0.17513853 1.1426669 0.7671325207 0.05056307837 -0.6394928694
-0.10249899 0.10456967 1.1810001 0.6642414331 0.4950387478 -0.5601070523
-0.17486668 -0.042751662 1.08 0.09796775132 0.2496969551 -0.9633554816
-0.35709152 0.099037245 1.06075 -0.5274124146 0.5896217227 -0.6117044687
-0.30433393 -0.071880527 1.057 0.009310560301 -0.7156440616 -0.6984030604
-0.18089579 0.13752139 1.1245 0.8161559701 0.4308132231 -0.385083586
-0.39587519 -0.01677122 1.082889 -0.5669044852 -0.4932494462 -0.6597911119
-0.1278421 0.064530708 1.1840001 0.5803856254 0.6863458157 -0.4382715225
-0.13562287 -0.054625891 1.1434002 -0.2757797539 0.7360578775 -0.6181944013
-0.22244233 -0.15319575 1.0325 0.3912418187 -0.3045301735 -0.8684418201
-0.30293745 0.26479629 1.243 -0.3802801371 0.8336884379 -0.4004379809
-0.23906699 0.017708667 1.01 -0.1415309161 0.1126488894 -0.9835035205
-0.31461868 -0.11435574 1.084857 -0.02158890665 -0.4515455961 -0.8919868469
-0.4260442 0.038644344 1.102 -0.6424849033 0.05497950315 -0.764323473
-0.36778182 0.015108766 1.041 -0.5235626698 0.2019329965 -0.8277108073
-0.18299934 -0.035568211 1.0511001 0.8611238003 -0.4101216793 -0.3004430234
-0.15786035 0.053327139 1.0565715 0.6794822216 0.3976921737 -0.6165588498
-0.20637213 0.064014025 1.0262692 0.5570127368 0.23792243 -0.79569453
-0.33233076 0.19256115 1.1470001 -0.4418049753 0.7268671393 -0.5258066058
-0.25534299 0.094635941 1.0184171 0.2532038987 -0.2006060779 -0.9463852048
-0.26495317 -0.034629654 1.0168078 -0.269128263 -0.4323981106 -0.8605822921
-0.18604104 0.04271492 1.0188235 0.4369126856 0.4451387227 -0.7816385627
-0.25762698 -0.14302158 1.0949 -0.1538553536 -0.5191583037 -0.8407158852
-0.33396411 0.10508574 1.0443333 -0.4335841835 0.6568747759 -0.6168632507
-0.21715443 0.2218101 1.138 0.1870218515 0.7107596993 -0.6781176329
-0.26557741 -0.1081719 1.08 -0.09577998519 -0.4887951612 -0.8671248555
-0.34601811 0.14739484 1.1025 -0.4271596074 0.6365389228 -0.6421471238
-0.35324383 -0.072175086 1.0555 -0.277862817 -0.5356216431 -0.7974344492
-0.13503735 0.039010789 1.141 0.261253953 0.6925504208 -0.6723989248
-0.14766426 0.12198496 1.1563333 0.5277860761 0.6682280898 -0.5243215561
-0.27541357 0.13466126 1.0433334 -0.3483868539 0.7242001891 -0.5951140523
-0.37372404 0.1539858 1.1332 -0.5617867112 0.6901617646 -0.4561495483
-0.39860278 0.0293508 1.08 -0.649061799 0.2663791478 -0.7125734687
-0.38532937 0.16569692 1.165889 -0.547984302 0.5933548808 -0.589612782
-0.081962548 0.094742246 1.2142001 0.5112771988 0.3096804917 -0.801681757
-0.048957448 0.12076171 1.2410001 -0.5467324853 0.06313388795 -0.8349237442
-0.40112758 -0.071641199 1.08 -0.662494719 -0.2160674185 -0.717227757
-0.22340056 0.1063553 1.031706 0.3155127764 0.5448566079 -0.7769060135
-0.38641575 0.10860836 1.1047143 -0.5692727566 0.6045147777 -0.5572167039
-0.3181248 0.1391796 1.08 -0.3983433843 0.7069182992 -0.5844562054
-0.27659246 -0.15641965 1.1120002 -0.1526433825 -0.6343824267 -0.7577987313
-0.19377032 0.11523969 1.0735555 0.8872290254 0.2522757351 -0.3862403035
-0.41144246 -0.050830886 1.0940001 -0.734834671 0.04670131207 -0.676636517
-0.1353135 0.24431777 1.2250001 0.7462328672 0.5140532851 -0.4229488671
-0.40340218 0.083364159 1.0930001 -0.6579797864 0.5007775426 -0.562391758
-0.20673563 -0.097275406 1.0267999 0.2086735368 0.2618721724 -0.9422729611
-0.31248483 0.18194532 1.1145999 -0.3623087108 0.7281874418 -0.5817864537
-0.052898239 0.21494095 1.2729999 0.3500378728 0.4829665422 -0.8026311994
-0.12422797 -0.074960977 1.115818 -0.1628316492 0.817378819 -0.5526099205
-0.43184337 -0.048960079 1.1170001 -0.7497256398 0.018346278 -0.6614943743
-0.094543584 0.015454893 1.175154 -0.6469779611 0.4310483932 -0.6289808154
-0.16440305 0.010453373 1.0840001 0.8389644027 0.102822043 -0.5343840718
-0.26270455 0.23092306 1.1570001 -0.2965302169 0.8054295778 -0.5131793022
-0.28706625 0.21833208 1.153 -0.3640347123 0.7626802921 -0.5346002579
-0.175217 0.20549598 1.1451541 0.601570189 0.4019353688 -0.6903342009
-0.12123774 -0.01657689 1.1820002 -0.5516588092 0.5695891976 -0.609295249
-0.10563266 0.14316563 1.1951817 0.47557652 0.6690781713 -0.5711054206
-0.181207 0.088280335 1.0600001 0.7257279158 0.4795910418 -0.4932660758
-0.26451924 0.023593534 1.013667 -0.08031877875 -0.3828133941 -0.9203275442
-0.23629059 0.2507363 1.177 -0.06434375793 0.8393033743 -0.5398423076
-0.12931359 0.076995879 1.126 0.8858857751 0.2317075878 -0.4018929303
