# .PCD v0.7 - Point Cloud Data file format
VERSION 0.7
FIELDS x y z normal_x normal_y normal_z
SIZE 4 4 4 4 4 4
TYPE F F F F F F
COUNT 1 1 1 1 1 1
WIDTH 206
HEIGHT 1
VIEWPOINT 0 0 0 1 0 0 0
POINTS 206
DATA ascii
-0.089828528 0.11154531 1.126 -0.385964185 -0.7348223925 0.5577344298
-0.41041937 -0.071429923 1.381 0.8104212284 -0.575091064 0.1117484495
-0.15983824 -0.27095574 0.97500002 0.5349362493 0.3632709384 0.762808919
-0.31042328 -0.04169865 1.057 0.8215577602 -0.2531174719 0.5108565688
0.033396266 -0.13107553 1.1010001 0.4813574255 -0.4918076396 0.7255482674
-0.10723444 -0.03481327 0.95742846 -0.3227710426 0.06534338742 0.9442187548
0.02378572 0.069091856 1.2920001 0.7104163766 -0.6895518303 -0.1408076733
-0.26401255 0.090074867 1.1810001 0.479877919 -0.7350239158 0.4790166914
-0.21729454 -0.13399027 0.98212504 0.3818919957 -0.198929593 0.9025439024
0.016103623 0.0061473893 1.1536154 -0.6151518822 -0.5699160099 0.5447787642
-0.046849299 -0.17649622 0.98868442 -0.6286656857 -0.3277439475 0.7052399516
-0.19485442 0.044564549 1.0447828 0.3767892718 -0.6817668676 0.6270756125
-0.015545451 -0.034334648 1.0431819 -0.729447782 -0.5252164602 0.438239187
-0.16552891 0.14743407 1.2142501 0.3367381692 -0.8882251978 0.3125115037
-0.048405148 0.14306411 1.2270001 -0.7132976651 -0.6456599832 0.2726346254
-0.084890768 0.045653045 1.0444286 -0.46029073 -0.7127851248 0.5292162299
-0.21373257 -0.030498233 0.9780001 0.2516664267 0.1711551547 0.9525596499
-0.18429866 0.099146619 1.1242001 0.3194582462 -0.8354011774 0.4472709894
-0.30808696 0.018822033 1.13 0.6452759504 -0.5823660493 0.4944378436
-0.29314652 -0.16239052 1.031 0.661984086 -0.2607347965 0.7027050853
-0.12475038 -0.13264026 0.95899993 0.04936745018 0.4587804675 0.8871771693
-0.22492 -0.21303532 1.0161999 0.2365175933 0.4591256082 0.8563078046
-0.0010537533 0.077977747 1.202 -0.9677804708 -0.2278449833 0.1071803793
-0.042484496 -0.092709079 0.98100007 -0.7811301351 0.1700207144 0.6007733345
0.01383167 -0.076739267 1.1627144 0.7899279594 -0.4125629067 0.4536581337
-0.085927621 -0.24322024 0.95437056 -0.4006267488 0.2518953681 0.8809352517
-0.04836921 0.043762613 1.126 -0.7368247509 -0.292940855 0.6093233824
0.022681119 -0.0032401599 1.2320001 0.7469251156 -0.4979524612 0.4406202435
-0.13075395 -0.19920233 1.001 -0.07554849237 0.3932213783 0.9163347483
-0.14296359 0.030325361 0.9883334 0.1756455004 -0.7127843499 0.6790339351
0.01069884 -0.18125784 1.046 0.01948456094 -0.9167745709 0.3989294469
-0.24505062 0.05415123 1.1042665 0.501321137 -0.7109871507 0.4931271672
-0.27190343 -0.089163139 1.0070001 0.6196628213 -0.4401065111 0.6498647928
-0.25534859 0.0044383127 1.0418572 0.5551449656 -0.7025734782 0.4452017546
-0.13513772 0.08915481 1.0705001 0.07705862075 -0.8691138625 0.4885724485
-0.017188286 -0.10512002 1.0448824 -0.1251399368 -0.6729198098 0.7290534377
-0.10513172 0.15314664 1.182111 0.0894228071 -0.8454850912 0.5264585018
-0.067581184 -0.0093519287 1.0064001 -0.701820612 -0.590088129 0.399053663
-0.16548052 -0.075143784 0.96306676 -0.03458863869 0.3103469908 0.9499939084
0.040383648 0.11023645 1.245 -0.6375815868 -0.4538413286 0.6225092411
0.054957353 -0.033527534 1.1827779 0.4884971678 -0.6884939671 0.5360472202
-0.016794654 -0.055789135 1.1010001 0.9543306231 -0.2987500429 -0.001210736576
-0.13738419 -0.25940302 1.031 -0.07092196494 0.4813868701 0.8736342192
-0.042573214 0.097167104 1.1618 -0.7355341911 -0.4798142016 0.4782967269
-0.22051235 0.12585339 1.2270001 0.4045271873 -0.870895505 0.2791036069
-0.015037755 0.0028815062 1.0948889 -0.5370286703 -0.7710117698 0.3422588706
0.050020847 0.043635208 1.2140001 -0.1432116628 -0.5126396418 0.846576035
-0.18641001 -0.18120788 0.98900002 -0.08701638132 0.4733643234 0.8765582442
-0.19295345 0.11866122 1.177 0.3815937936 -0.8526666164 0.3568554819
-0.084965706 -0.094498694 0.94800007 -0.1496479511 0.03888285905 0.9879745245
-0.14490511 0.12738554 1.1467143 0.2300072908 -0.8685578704 0.4389805198
-0.15910184 -0.01978023 0.98100007 -0.02670400031 0.193821907 0.9806731939
-0.26264414 -0.036889344 1.0067 0.6247245073 -0.3086512387 0.717254281
-0.25451493 -0.1731253 0.99657899 0.4896424413 0.3109107912 0.8146070838
-0.17429414 -0.22701152 1.0100001 -0.0791900456 0.4638905227 0.882346034
-0.062961034 0.018035956 1.0826668 -0.7014145851 -0.6328724623 0.3278566599
-0.0086316597 -0.16016525 1.0940001 0.3140669465 -0.8237233758 0.4720611572
-0.019471643 0.043042578 1.169 -0.7493641376 -0.4792222381 0.4569457471
-0.2098477 0.0097397668 1.01 0.5301659107 -0.6582698822 0.534420073
-0.074746497 0.075072542 1.0931666 -0.7702333927 -0.4423490167 0.4594212472
-0.051219251 -0.14107758 1.0250001 0.1718493104 -0.5713751912 0.8024950027
-0.28877398 -0.0018936 1.08 0.5975114703 -0.599937439 0.5320292115
-0.30653295 -0.092864104 1.0431819 0.6668506265 -0.4322355986 0.6070277095
-0.0076708342 0.065750003 1.25 -0.5275354981 -0.7472163439 0.4041955471
-0.22962266 -0.084280983 0.98100007 0.4104663134 -0.185707733 0.8927654028
-0.14149049 0.060381293 1.028 0.2984499633 -0.8030264378 0.5158256888
-0.22846109 0.088180393 1.1430001 0.4420087039 -0.8058480024 0.3940016925
-0.075648032 -0.14356668 0.96700007 -0.3094476163 0.3177065551 0.8962726593
-0.27621752 0.056934066 1.1474001 0.5440512896 -0.7261530161 0.4203689098
-0.054839432 -0.04457663 0.97528601 -0.4670942128 -0.5623211861 0.68236202
-0.19465494 0.07195843 1.0861428 0.378591001 -0.7527868152 0.5384987593
-0.1712428 -0.14157203 0.96700007 0.19480142 0.3464381099 0.9176235795
-0.075246908 -0.19566666 0.95674986 -0.2292612195 -0.3953362703 0.889465332
-0.1313117 -0.24784593 0.94680005 0.08261012286 0.4506836534 0.8888530731
-0.098575026 -0.23000841 1.013 0.04667174444 0.3994946182 0.9155467153
-0.05434034 0.13627759 1.1817273 -0.6487997174 -0.6522528529 0.3919503987
-0.0079351487 -0.19216402 1.0055001 -0.626778841 0.1659071743 0.7613297701
-0.105483 0.0054060207 0.98525 -0.09216095507 -0.6814432144 0.7260451317
0.0029759074 -0.12180934 1.1322858 0.6985625029 -0.5297814012 0.4809803963
0.034066323 -0.08808437 1.125077 0.6586847901 -0.5481402874 0.5154383183
-0.25854653 -0.132815 1.01 0.6544618607 -0.08087422699 0.7517573237
-0.10688291 -0.16812217 0.98233342 0.2387468964 0.530700326 0.8132386208
-0.23390707 0.034329444 1.0619377 0.4559368491 -0.6302734613 0.6283923388
0.04591655 0.0065966072 1.195118 -0.3249072433 -0.2683395743 0.906878829
-0.042205658 -0.2151603 1.01 -0.5250746012 0.511313498 0.6803346276
-0.12445536 -0.086345337 0.95704156 0.2570019364 -0.2515116036 0.933108747
-0.045260984 -0.0052294624 1.0535001 -0.4519577622 -0.8247439861 0.3398993313
-0.028358411 -0.055301715 1.0045999 -0.7687763572 -0.4149899781 0.4865863025
-0.27650923 0.027602069 1.10475 0.5710873008 -0.6591129303 0.4893153012
0.014681538 0.040891238 1.1960001 -0.3242938221 -0.8339204192 0.4465537369
-0.11067917 0.038073633 1.01 -0.5725791454 -0.5187751055 0.6348428726
-0.017214665 -0.14875236 1.0070001 0.03537184373 -0.4164129794 0.9084872603
-0.18834218 -0.10148118 0.98100007 0.2808826566 0.0910076797 0.9554174542
-0.17527732 0.034986105 1.0122106 0.3766345382 -0.7878552079 0.4872684479
0.043990914 -0.057312962 1.1470002 0.6018859148 -0.5620141625 0.5673389435
-0.14446886 0.10538162 1.1046363 0.2357020229 -0.8429853916 0.4835495949
0.028325975 0.077806801 1.2270001 0.51951015 -0.3578546941 0.7759183049
-0.31677034 -0.010655884 1.105 0.581709981 -0.630418241 0.513990581
-0.14493856 -0.16514936 0.98339999 0.04382096976 0.6012935638 0.7978256345
-0.28727278 -0.12546572 1.0416 0.7251236439 0.23111853 0.6486755013
-0.060428634 0.087175727 1.13 -0.7391713262 -0.3672580421 0.5645771027
0.024784461 -0.16381347 1.077 0.155987978 -0.8047009706 0.5728211403
-0.16540946 0.069694996 1.0600001 0.3450189531 -0.7673486471 0.5404978991
-0.097349927 0.075257652 1.0638463 -0.5597531199 -0.6644818783 0.4951163828
-0.17552637 -0.2572338 1.031 0.06111793593 0.5094323754 0.8583375216
-0.089574292 -0.19915061 0.99200004 0.3311399817 0.5403988957 0.7735084891
-0.2929019 -0.054533388 1.0275384 0.7462368011 0.05100966617 0.6637233496
-0.14475714 -0.045817431 0.95700002 0.2029865086 -0.154641062 0.9668932557
-0.15323082 0.13977134 1.1810001 0.2717522681 -0.8806810379 0.3880097866
-0.02823831 0.10772392 1.1930001 -0.7186520696 -0.5886716843 0.3701416552
-0.10579487 0.09815035 1.09 -0.3061006665 -0.8125532866 0.4960438907
-0.093578465 0.13455255 1.154 -0.1844996065 -0.8478025794 0.4971827269
-0.023299558 0.01750304 1.1445557 -0.5264160633 -0.6606349945 0.5352079272
-0.1850366 0.0050914367 0.98527783 0.4427774251 -0.6557136774 0.6115453243
-0.23586781 -0.014072693 1.0035 0.4894345999 -0.6519614458 0.5791373253
-0.077667117 0.022319056 1.0183333 -0.6974796057 -0.5673519969 0.4377601147
-0.22588982 0.10694632 1.1730002 0.3944201469 -0.8015886545 0.4493198991
-0.03075259 -0.078279316 1.0630001 -0.2727885246 -0.7006750703 0.6592729688
-0.20088992 -0.24089397 0.99200004 -0.5086643696 -0.7463929057 0.4291365445
-0.081550166 -0.059691355 0.95900005 0.1007287502 -0.4316138923 0.8964168429
-0.22109094 -0.18120788 0.98900002 0.1248421371 0.5303297043 0.8385492563
0.016595885 0.046183974 1.2346668 0.03228300437 -0.9830960631 0.1802220196
-0.27834606 -0.020990029 1.041 0.659288764 -0.5685719252 0.4920002818
-0.15048948 -0.10845331 0.95900005 0.3279719353 -0.1968271732 0.9239553213
-0.23469417 -0.054641262 0.99617404 0.268188715 0.1147361249 0.9565095305
-0.21712479 0.077824436 1.113125 0.4059251249 -0.7853751183 0.4673443437
-0.18439023 -0.046241224 0.97589481 0.3558715582 -0.3495661318 0.8666942716
0.0009858117 0.0019729384 1.1245 -0.6960121989 -0.6334111094 0.338167727
-0.051794559 -0.12388286 0.98475003 -0.8055127263 0.2569176257 0.5339874625
-0.08177083 -0.025207045 0.98185718 -0.5998901725 -0.3376279771 0.7253544927
-0.043154631 -0.021943605 1.0236366 -0.598025322 -0.6827142239 0.4198416471
-0.13499352 0.15503061 1.2030001 0.2432307452 -0.8668271303 0.4352580011
-0.26150441 0.021635257 1.0730001 0.5730142593 -0.6073887944 0.5502122045
-0.035922747 0.065397792 1.1459527 -0.7718223929 -0.2411454022 0.5883358717
-0.0063488199 -0.018581608 1.0732501 -0.7553313971 -0.5363684297 0.3765413463
-0.066052161 0.01874138 1.0513334 -0.8698722124 -0.4321078062 0.2379184067
-0.14750618 0.0076296302 0.96700007 -0.3000462949 0.05033032969 0.9525959492
-0.06524685 0.11624325 1.1450001 -0.4884897172 -0.6700647473 0.5589194894
-0.035723239 0.013751601 1.1155294 -0.4453933835 -0.7906243801 0.4201640785
-0.24363355 -0.11068998 0.98900002 0.2910708189 0.4147371948 0.862131536
-0.0162271 0.074699678 1.1752502 -0.7880668044 -0.206990689 0.5797461271
-0.29307404 0.060671471 1.1730001 0.5353882313 -0.7305468321 0.4238641262
-0.12615274 -0.013944121 0.97194731 0.1708071083 -0.4929262102 0.8531404734
0.029169912 -0.047698557 1.1743335 0.6673923135 -0.5631777048 0.4872559607
-0.19724546 -0.072884895 0.97050017 0.3389226496 -0.1709955484 0.9251443148
-0.12548596 0.11661233 1.1248751 0.07760261744 -0.8669331074 0.4923462272
-0.025663624 -0.12344462 1.0228572 0.07600831985 -0.5223351121 0.8493461013
-0.16562377 0.087278917 1.094 0.3453943729 -0.8077505231 0.4777465761
-0.17517017 -0.24557561 0.97468001 0.6254516244 0.2887960076 0.7248497605
-0.22331341 0.021968061 1.033375 0.473664999 -0.7117938399 0.5186433792
-0.13550732 -0.23441724 1.0152503 -0.06019139662 0.413269937 0.9086170793
0.004642189 -0.10474937 1.1651822 0.8323709369 -0.4565963447 0.3141311407
-0.19982214 0.12792847 1.2060001 0.3814562559 -0.8738226295 0.3015379906
-0.25195751 0.071706071 1.136 0.5013523102 -0.7675389647 0.3994117379
-0.095655575 -0.12513435 0.95556241 -0.06487178802 0.3385560215 0.9387073517
-0.058694977 -0.083892137 0.95799994 -0.6080551147 0.1332409829 0.7826339006
-0.11117273 0.058749817 1.031 -0.5291936398 -0.6839225888 0.502199173
-0.21430485 0.053153347 1.075 0.4005840123 -0.7627612352 0.5076689124
-0.053296879 -0.20315306 0.97461551 -0.7025227547 -0.1155177951 0.7022231817
-0.2937825 -0.10535856 1.01765 0.6882743835 -0.009190715849 0.7253922224
-0.19488005 -0.20526211 1.0032257 0.06082362309 0.3216182292 0.9449138641
-0.16538307 -0.19573309 1.0029353 -0.05015237629 0.3557262123 0.9332435727
-0.17329596 0.12211923 1.156 0.3058468699 -0.8582162261 0.412216723
0.023299696 0.057474267 1.2656 -0.5907146335 -0.7357768416 0.3311928213
-0.20392779 0.10302617 1.1458889 0.4173293412 -0.7989481688 0.4330335855
-0.3096036 -0.0227232 1.08 0.6038605571 -0.6169953942 0.5046474934
-0.24854079 -0.19638577 1.0118001 0.3478463292 0.6121785641 0.7100988626
0.051768221 0.096647941 1.2672001 0.9424145222 -0.3340839744 0.01558149979
-0.19492283 -0.15474358 0.97520024 0.06132937968 0.2984876335 0.9524409771
-0.24212867 -0.14570329 0.98884624 0.4720126987 -0.2003839016 0.8585163355
-0.070460327 0.048260503 1.1010001 -0.8573125005 -0.2301500887 0.4604847133
-0.073166594 0.059096098 1.0700001 -0.6520066857 -0.6445767283 0.3992595375
0.0071879649 -0.13812549 1.108 0.4806249142 -0.6157450676 0.6243858933
-0.12545012 0.13870969 1.1634001 0.03219816834 -0.9288833737 0.3689701557
0.02166857 0.02166857 1.177 -0.7263542414 -0.4735974669 0.498111397
-0.25635773 -0.064787619 1.0102309 0.5963560939 0.06804597378 0.7998306751
-0.00280621 -0.16930801 1.067 0.04906043783 -0.8731486797 0.4849788845
-0.10753281 -0.26047578 0.95333344 -0.1937987953 0.4997646511 0.8442021608
0.02845134 -0.013698793 1.202 0.7385197878 -0.256124258 0.6236897707
-0.01154307 0.049320389 1.197 -0.8145058751 -0.3321573436 0.4756591916
-0.075709231 -0.17417723 0.97393346 0.06135350093 0.04387136549 0.997151494
-0.16792023 0.048368331 1.041 0.3607021868 -0.7541114092 0.5488259196
-0.27832118 -0.1732498 1.01 0.6752082705 0.2746400237 0.6845923066
-0.30381572 -0.068166241 1.0555 0.8164346814 -0.07320824265 0.5727782845
-0.26778311 0.048240338 1.123 0.569770813 -0.6628497839 0.4857894182
-0.21525604 -0.10712502 0.98468184 0.2040837556 0.291552335 0.9345303774
-0.06893637 -0.11382616 0.95790905 -0.505122602 0.2083024085 0.8375328779
-0.075950019 0.15219387 1.1839091 -0.2332771868 -0.7761173248 0.585852921
-0.094062574 -0.21861288 0.9471429 -0.4063862562 0.08565437794 0.9096777439
-0.066799097 -0.22339112 0.96347833 -0.4820919037 0.03498919681 0.8754217029
-0.042500801 -0.16114886 1.01 -0.1700431406 -0.552208662 0.816180706
-0.29796761 0.0080539361 1.1023334 0.6069486141 -0.6096301675 0.5098670721
-0.24732785 0.087870926 1.161 0.4385176301 -0.7630676031 0.4747948647
-0.40259162 -0.06385757 1.3573335 0.8126149774 -0.5715520382 0.1139525697
-0.25764096 -0.014360677 1.024 0.5683786273 -0.6090350747 0.5531924963
-0.27231678 -0.11352001 0.99800009 0.4411390126 0.3910408318 0.8077644706
-0.30258369 0.041511483 1.141 0.5694169998 -0.687798202 0.4502198398
-0.049720149 -0.02878535 0.99500006 -0.6241227388 -0.6424660683 0.4446438253
-0.13704491 -0.26776469 0.96200007 0.2445763648 0.561834991 0.7902681828
-0.036066066 0.12835276 1.21 -0.7676441073 -0.5909654498 0.247956425
-0.17389004 -0.11601925 0.96600014 0.3640390337 -0.1693883985 0.9158510566
-0.15486376 -0.24760866 0.95600003 0.429895699 0.4178528488 0.8003678322
-0.28209862 -0.078121737 1.0272501 0.6371487379 -0.356951654 0.6831009984
-0.22034666 -0.15861531 0.97800004 0.2302103788 0.1183509231 0.9659172893
-0.17415158 -0.0057106069 0.9655003 0.149509117 0.1020479873 0.9834801555
-0.042140488 -0.065360762 0.98100001 -0.7888213396 -0.1564979106 0.5943645835
