# .PCD v0.7 - Point Cloud Data file format
VERSION 0.7
FIELDS x y z normal_x normal_y normal_z
SIZE 4 4 4 4 4 4
TYPE F F F F F F
COUNT 1 1 1 1 1 1
WIDTH 206
HEIGHT 1
VIEWPOINT 0 0 0 1 0 0 0
POINTS 206
DATA ascii
0.012388469 -0.13132524 1.2113334 0.7156349421 -0.6058868766 0.3475165367
-0.075531848 -0.48767301 1.8730001 -0.2320832908 0.7009692192 0.6743734479
-0.20671538 -0.10010745 1.483 0.9001017809 0.1482243389 0.4096904695
-0.14024475 -0.36048093 1.1850001 0.7488492727 0.2649200559 0.6074883342
-0.08422114 0.092992194 1.3342501 0.08858220279 -0.7731034756 0.6280638576
0.0075875497 -0.31108955 1.7310001 -0.2320832908 0.7009692192 0.6743734479
0.092581257 -0.0051840805 1.3436002 -0.4072636962 0.5863465667 0.7002385259
-0.072893955 -0.22405431 1.066 0.3200312555 0.2187229991 0.9218135476
-0.12938373 -0.058163326 1.3540001 0.5357095003 0.4723580182 0.6999237537
-0.12131635 -0.097251266 1.1436667 -0.009131749161 -0.7882301211 0.6153128147
-0.039540295 0.011755223 1.2190001 -0.3962588906 -0.6640060544 0.6340937018
-0.17807905 -0.2246695 1.1810001 0.8776000738 -0.003996127751 0.4793767929
0.0080615347 -0.077157475 1.3136667 0.6403152943 -0.5808478594 0.5026052594
-0.017614571 -0.12907046 1.0960001 -0.5382267237 -0.5414994359 0.6458253264
-0.058861151 -0.31425869 1.138 -0.8288394809 0.3604055941 0.4279402792
0.0037468732 0.041775357 1.3145001 -0.3594950736 -0.7238920927 0.5888493061
-0.16310412 0.033597082 1.3850001 0.9021471739 -0.1235993281 0.4133445621
-0.035209324 -0.063745946 1.1626364 -0.2840918899 -0.6631081104 0.6925167441
-0.08525528 0.0048290845 1.302 0.4840325415 -0.1825278848 0.8558014035
-0.0048470898 -0.44108519 1.8430001 -0.2320832908 0.7009692192 0.6743734479
-0.14074993 -0.17666346 1.10725 0.7431066036 -0.07542686164 0.6649085283
-0.01423356 -0.35267597 1.8040001 -0.2320832908 0.7009692192 0.6743734479
-0.18969576 -0.031406581 1.4330001 0.9338296652 -0.05083775148 0.3540871143
-0.19297431 -0.30209547 1.2108001 0.5314716101 0.5426297784 0.6504543424
-0.12382624 -0.26291409 1.136 0.7936975956 0.2771851122 0.5414910316
-0.17336303 -0.11020796 1.4125001 0.8111553192 0.1604663283 0.5623856783
-0.092730299 -0.038988873 1.202 0.3860952258 -0.7568584681 0.5273478031
0.0075603733 -0.042122081 1.2320001 -0.7790364623 -0.3854475021 0.494502157
0.01544862 -0.016637089 1.3556668 0.6574794054 -0.2120200396 0.7230271697
-0.02219983 -0.2596415 1.1010001 -0.4344569445 0.5621753931 0.7037087083
-0.081513345 -0.15736167 1.077 0.5986878276 -0.3611530364 0.7149415612
-0.0675513 -0.08669319 1.1075714 -0.4084126055 -0.4972624779 0.7654600739
-0.12652713 0.044725381 1.3330001 0.5930144191 -0.09196405113 0.7999228239
-0.050417099 0.050417099 1.2780001 0.1626159847 -0.806632638 0.5682427287
-0.027038764 -0.18367125 1.0635 0.3169149458 -0.2383207083 0.9180240631
-0.08436767 -0.27471578 1.0935556 0.425655663 0.458881408 0.7799007297
0.032875001 -0.092050001 1.25 0.7924730182 -0.5620413423 0.236846
0.0038281111 0.0045637321 1.2671111 -0.71543926 -0.590601027 0.3732788861
-0.16614927 -0.023892432 1.3815457 0.8027432561 0.02066820674 0.5959665179
-0.1140542 -0.32430297 1.1475002 0.5714340806 0.440251708 0.6925615668
0.054568887 0.015898021 1.3069999 -0.1696468592 0.3061297834 0.9367520809
-0.025299333 0.077993423 1.3456668 -0.4321955144 -0.7728750706 0.4646194279
-0.16427945 -0.33835039 1.2410001 0.5145375729 0.7241296768 0.4592247009
-0.15679158 -0.28549063 1.1744287 0.5630185604 0.4252270162 0.7086551189
-0.13539678 -0.0047094529 1.3430003 0.676546216 0.02218004502 0.7360660434
-0.10749626 -0.21491502 1.1016153 0.6446526051 0.0303350091 0.7638735175
-0.15496174 -0.21541336 1.1346669 0.7199658751 0.3011360765 0.6252728701
-0.10489868 -0.041662455 1.3148572 0.6675623059 0.2405133247 0.7046374679
-0.15168457 -0.13537936 1.1308889 0.5374492407 -0.2187798768 0.8144223094
-0.018755406 -0.089828528 1.126 -0.4571842253 -0.6514840722 0.6054346561
-0.10534406 -0.12466692 1.1023998 0.3269901872 -0.4605458081 0.8252120614
-0.0077015166 -0.34810856 1.7570001 -0.2320832908 0.7009692192 0.6743734479
-0.086097032 -0.076229118 1.1679091 0.4670112133 -0.6954232454 0.5461565852
-0.16171958 -0.071740262 1.3870001 0.7356656194 0.2291333675 0.637411952
0.016397173 -0.15269868 1.169 -0.9545580745 -0.1234299839 0.2712635994
-0.025524152 -0.026923312 1.1965556 -0.2922647893 -0.7023515701 0.6490635872
-0.0010458634 -0.067981116 1.1930001 -0.8452166915 -0.3652969301 0.3900856972
-0.19639349 -0.077200845 1.4342 0.8950116634 0.1036382988 0.4338355064
0.015459578 0.052326918 1.3565001 -0.4195204675 -0.7921942472 0.4432052374
-0.088104293 0.054518849 1.312 0.6254689693 -0.1226155162 0.7705543637
0.0051050056 -0.12190084 1.2664001 0.8167581558 -0.5165587068 0.2570470273
-0.021340989 -0.21755068 1.09 -0.626979351 0.2785278261 0.7275432348
-0.15397862 -0.31797051 1.2030001 0.5916618109 0.6432188749 0.4860100448
-0.066963308 -0.018360907 1.2320001 0.7538063526 -0.5604663491 0.3430064917
-0.18720953 -0.26564929 1.1930001 0.6659725904 0.3440255523 0.6619115472
-0.062821813 -0.035456534 1.1747144 0.4634786546 -0.6985411644 0.5451860428
-0.06328588 -0.12410707 1.0912106 0.0324241221 -0.5424535275 0.8394598961
-0.16254495 -0.17554854 1.1409999 0.8808591366 -0.08976982534 0.4647887349
-0.054058775 0.079362877 1.312 -0.3165825009 -0.794040978 0.5189166665
-0.1767623 0.0012361 1.4100001 0.9196781516 -0.1073130369 0.3777247369
-0.094678514 -0.30451712 1.1160588 0.3893852532 0.5258117318 0.7562414408
-0.16178137 -0.25205439 1.1570001 0.5537419319 0.3558677137 0.7528133988
0.0082415435 -0.052981351 1.3430001 0.6399691701 -0.4826507568 0.5979027748
-0.026779126 0.023849541 1.2556 -0.517219305 -0.6505860686 0.5560773015
-0.12159893 0.081717603 1.3379999 0.5389216542 -0.2285326421 0.8107628226
0.0010664649 -0.008529528 1.2165 -0.39610219 -0.6743397713 0.6231925488
-0.10402819 -0.17513199 1.101 0.1983773261 -0.04393288121 0.9791406393
-0.055122256 -0.25576195 1.0814761 -0.2496621311 0.4415431917 0.8618053198
-0.096162245 -0.35236225 1.1627779 0.3164580166 0.6362929344 0.7035521269
-0.00304291 -0.080129966 1.1570001 -0.6782657504 -0.5181593299 0.5210244656
-0.06351757 -0.061517011 1.141 -0.3438630104 -0.6870653033 0.6400777698
0.028119083 -0.079858199 1.2830001 0.7243015766 -0.5651592016 0.3949458897
-0.065072089 -0.18551171 1.0629998 0.1705583483 -0.1450349838 0.9746151567
-0.04512449 -0.15512161 1.0724 0.03040238097 -0.4180057943 0.9079355001
-0.1784718 -0.046771921 1.404 0.8741679788 0.1161589473 0.4715266824
-0.14837584 0.024927141 1.3540001 0.7345916033 -0.03747335821 0.6774739027
-0.0067485799 0.034867663 1.2830001 -0.5283049345 -0.7581297159 0.3822737336
-0.091584489 -0.19921987 1.077 0.7223749757 -0.06945081055 0.6880050302
-0.13860257 -0.32353893 1.1746 0.8287386298 0.2595203519 0.4958239794
-0.12029094 -0.29525959 1.1340001 0.7257224321 0.2426653355 0.6437705159
-0.11541045 0.015612796 1.3236365 0.6411070228 -0.07522656769 0.7637556791
-0.025873238 0.051980019 1.3060001 -0.5476873517 -0.7336368561 0.4022629857
-0.11231995 -0.25496259 1.1068749 0.6839691997 0.2840108573 0.6719552875
-0.057956435 -0.011591286 1.202 0.5577402115 -0.6950084567 0.4537500739
-0.14303431 0.064098358 1.3540001 0.7704914808 -0.1580868214 0.6175366044
0.0056632669 -0.10080615 1.2920001 0.7429378629 -0.5040740371 0.44040066
-0.16692084 -0.20203528 1.161 0.9287202954 -0.01625402272 0.3704246581
-0.029079033 -0.24107456 1.0700001 -0.4558081329 0.349499017 0.8185898662
-0.12896906 -0.22938772 1.123 0.6715630889 0.3537000418 0.6510754824
0.015188141 0.016181404 1.2951251 -0.3936922252 -0.733956635 0.5534565449
-0.09052898 -0.24490471 1.087 0.6074750423 0.2886606157 0.7400331497
0.03834606 0.042354178 1.30575 0.1875437945 -0.4451378584 0.8756024241
-0.061278999 -0.29924577 1.1650001 -0.7888011336 0.5007988811 0.3563611507
-0.071136236 0.028228667 1.2880001 0.7368320227 -0.02228454128 0.6757085323
-0.1311318 -0.1476447 1.108 0.6934962869 -0.4184735715 0.5864663124
-0.043122478 -0.1080121 1.1071428 0.006123600528 -0.6825375557 0.7308248878
-0.084301144 -0.33071989 1.138 -0.1611251831 0.6297610402 0.7598945498
-0.19200385 -0.10672487 1.439 0.8585084677 0.2096244693 0.4679965377
-0.05115613 -0.27798048 1.1010001 -0.3439163268 0.688292563 0.6387290955
-0.044873931 -0.21531419 1.0625861 -0.3534027934 0.2617680132 0.8981001973
-0.15130652 -0.035741702 1.3590001 0.7461292148 0.1823722869 0.64033705
-0.053391628 0.022887137 1.243 -0.2551149428 -0.76240623 0.5946874022
-0.12346551 -0.034834828 1.3366365 0.6770657897 0.2793689966 0.6808339953
-0.013156137 -0.16368681 1.0470001 0.3805273473 -0.5049680471 0.7747297287
-0.016012434 -0.046114005 1.1759335 -0.3173042834 -0.688295126 0.6523556113
0.082285687 0.011589533 1.322 -0.4072636962 0.5863465667 0.7002385259
-0.083653405 -0.02387777 1.2970001 0.535694778 0.01303977706 0.8443109989
-0.16213951 0.0048041334 1.3700001 0.8670079112 0.05601222441 0.495136261
-0.099699795 -0.10562255 1.126 0.4929816425 -0.7800129056 0.3854204714
-0.12382916 -0.12283853 1.13 0.292622745 -0.4623606801 0.8370152712
-0.17851634 -0.075036086 1.4108334 0.7912240028 0.1965357065 0.5790839791
0.020521013 -0.11124549 1.2320001 0.7852156162 -0.5713880658 0.2386463135
-0.010829464 -0.12109309 1.123 -0.6712150574 -0.4613353014 0.5802069306
-0.043011893 -0.081022412 1.141 -0.2375609428 -0.7244694233 0.6470772028
-0.11199329 -0.0115457 1.317 0.6752290726 0.03454533964 0.7367987037
-0.13684115 -0.28481534 1.1549999 0.6925701499 0.1789258569 0.6988075972
-0.20323062 -0.088194422 1.4580001 0.9067754745 0.1318119764 0.4004795551
-0.068687417 -0.29721513 1.114 -0.1975670159 0.7343705893 0.6493589878
-0.015155815 0.0021662433 1.2350001 -0.2290018648 -0.8021428585 0.5514752865
-0.0054534511 0.058819365 1.3330001 -0.4257720709 -0.7255840898 0.5405976772
-0.13554393 -0.20575301 1.1123158 0.5451895595 0.3371966481 0.7675068378
0.0024669401 -0.038413778 1.2060001 -0.7955524325 -0.3712259233 0.4788398743
-0.17846566 -0.3227343 1.2190001 0.359274745 0.7490126491 0.5566881299
-0.14570697 -0.23906612 1.141 0.4994885623 0.4397267401 0.7464258671
-0.058649 0.090319462 1.3380001 -0.2954590917 -0.9035346508 0.3103691638
-0.019753929 -0.14956547 1.0730001 -0.08638095856 -0.6644880772 0.7422896624
-0.12426098 -0.34383869 1.1672857 0.600415647 0.4117953479 0.6855112314
-0.076778546 -0.054675553 1.1850002 0.5406241417 -0.6427976489 0.5427123904
-0.089121051 -0.1447815 1.101 0.377479285 -0.1241165027 0.9176625013
0.06622047 -0.0050639189 1.3330001 -0.3838221729 0.6112816334 0.6921092868
-0.084266722 -0.10557427 1.1048397 0.3731951118 -0.2991915047 0.8781855702
-0.088564374 0.027604479 1.312 0.5176385045 -0.151013568 0.8421670198
-0.062295932 0.00339796 1.2920001 0.6786324978 -0.06509914994 0.7315873504
-0.17411214 -0.30376652 1.1944546 0.4773079157 0.5447304249 0.6895258427
0.022203337 0.047912464 1.3330001 -0.2633934617 -0.8264484406 0.4976010621
-0.16387793 -0.095390104 1.3950001 0.777348876 0.1691258997 0.6059085131
-0.06430836 0.061625604 1.2951818 0.3155338764 -0.5275067091 0.7887807488
-0.16716719 -0.22795291 1.1556667 0.8488280773 0.0952848047 0.5200113058
0.023476258 -0.058113355 1.317 0.6008415818 -0.6114546657 0.5148908496
-0.067941077 -0.033441324 1.2046667 0.6854538321 -0.6709743738 0.2827479839
-0.10619023 -0.27663162 1.1150001 0.6951541305 0.3312939107 0.6379694939
-0.038177956 -0.037146121 1.177 -0.4232900143 -0.604185462 0.6751188636
-0.12102295 -0.16581097 1.087 0.04131615534 0.07394968718 0.9964057803
-0.145375 -0.33781385 1.1930001 0.8810088634 0.1930999309 0.4318979084
-0.10457635 0.065068722 1.325375 0.5047816038 -0.1874770522 0.8426433802
-0.033065673 0.066136606 1.3235002 -0.5195388198 -0.7410355806 0.4253771305
-0.18372414 -0.024745012 1.4112501 0.9369974732 -0.06487739831 0.3432588577
-0.15197454 0.0454727 1.365 0.8396028876 -0.1657512933 0.5172944665
-0.10042831 -0.063155942 1.1810001 0.2070347518 -0.7050319314 0.6782820821
-0.14372367 -0.067257874 1.37 0.5505228639 0.4472576976 0.7049008012
-0.052205153 -0.093576625 1.1236001 -0.3708063364 -0.6249241233 0.6870025396
-0.15398243 -0.19487785 1.124125 0.8341431022 0.00428129686 0.5515314937
-0.030875906 0.038315885 1.273 -0.5445642471 -0.7483816743 0.3786485195
-0.028853729 -0.0085492535 1.2190001 -0.4614585638 -0.6579958797 0.595060885
-0.09728808 -0.092220068 1.156 0.03377305716 -0.7422360778 0.6692869067
-0.17748976 -0.25564283 1.1730001 0.7457634211 0.1738757044 0.6431206465
-0.044702787 -0.1350583 1.0849665 -0.01253282651 -0.5915166736 0.8061953783
-0.13147563 -0.31258199 1.1554 0.7270968556 0.3047532439 0.6151874661
0.020800086 -0.034535993 1.3430001 0.6661017537 -0.467944473 0.5808066726
-0.14691468 -0.16438138 1.1247143 0.8165621758 -0.1035538092 0.5678933263
-0.086565174 0.07651522 1.3133639 0.4607832432 -0.3556613326 0.8131321073
-0.19381785 -0.04940455 1.4450001 0.9264314771 -0.02212301828 0.3758128881
-0.056259934 -0.047644198 1.1563333 -0.3020587265 -0.6859585047 0.6619829535
-0.065058686 -0.14283153 1.08 0.2023710161 -0.5067005754 0.8380337358
-0.16638559 -0.045631509 1.3837694 0.7928841114 0.1710611731 0.5848699212
-0.073638245 -0.071104422 1.1242858 -0.4946328998 -0.6242653728 0.6046743393
-0.15172967 -0.014261614 1.3556668 0.7982153296 0.05825289711 0.5995489359
-0.091584489 -0.22471246 1.077 0.6384112239 0.1774902791 0.7489514947
-0.11492229 -0.19458264 1.1029998 0.2578192949 0.1968798786 0.9459215403
-0.055120975 -0.23655286 1.071421 -0.160061419 0.4152519405 0.8955144882
-0.1410206 -0.2608881 1.149 0.5114030242 0.3926684558 0.7643810511
-0.0044122632 0.022057811 1.2580001 -0.48111552 -0.7131206989 0.509888947
-0.045201372 0.041616898 1.2575001 -0.1244144067 -0.892498374 0.433552444
-0.14347526 -0.30129808 1.169 0.7524380684 0.3580154181 0.5528669953
0.019009201 -0.098398387 1.2755001 0.7754414082 -0.5414198637 0.3248925805
0.0094285496 -0.14456934 1.1950001 0.6932045221 -0.6285641193 0.3526678681
-0.11493258 -0.14508918 1.0946666 0.2638725936 -0.2855035961 0.9213353992
-0.18226515 -0.094876371 1.4240001 0.8122037649 0.2053019106 0.5460550785
-0.13137376 0.01524874 1.3380002 0.6740038395 0.02690841258 0.7382375598
-0.10512957 0.09447749 1.3341112 0.382534802 -0.4224925041 0.8216855526
-0.013919421 -0.061453845 1.161889 -0.417196095 -0.6881511211 0.5936290026
-0.0011642133 -0.065195948 1.3280001 0.6504072547 -0.5705114603 0.5014848709
-0.17451715 -0.28461462 1.1865386 0.5944237113 0.3955714405 0.7001311779
-0.14357677 0.044556931 1.3446002 0.7314046621 -0.06968922913 0.6783735156
-0.15514995 -0.30430084 1.1865386 0.5444386601 0.5516194701 0.6319038868
-0.091208883 -0.17533538 1.0849999 0.7608286738 -0.2069039345 0.615085721
-0.17144707 -0.0048637465 1.3870001 0.8778560758 -0.03965324536 0.4772801697
0.025111239 -0.071909457 1.302 0.6592624187 -0.587634325 0.4691044688
-0.035258658 -0.25252822 1.087 -0.3623464406 0.5274532437 0.7684387565
-0.045374196 -0.19497135 1.0608571 0.03679932281 -0.04965940863 0.9980880618
0.018343227 -0.10530066 1.2555 0.8073387146 -0.5455964804 0.22478576
-0.19140351 -0.058797155 1.427 0.9003615379 0.01571238972 0.4348588884
-0.11525396 -0.23495033 1.1047198 0.7061203122 0.1666278988 0.6882072687
-0.039719574 0.061283819 1.2945001 -0.476500392 -0.7365866303 0.4799870551
0.025797043 0.027768791 1.3120002 0.0439732708 -0.6254172325 0.7790504694
-0.14247529 -0.1161519 1.126 0.2740187347 -0.2889229655 0.917298913
