# .PCD v0.7 - Point Cloud Data file format
VERSION 0.7
FIELDS x y z normal_x normal_y normal_z
SIZE 4 4 4 4 4 4
TYPE F F F F F F
COUNT 1 1 1 1 1 1
WIDTH 206
HEIGHT 1
VIEWPOINT 0 0 0 1 0 0 0
POINTS 206
DATA ascii
-0.063423768 0.11459174 1.398 0.7084866762 -0.1837422252 0.6813849211
-0.40535665 -0.42135757 2.0280001 -0.2134444863 0.7717983723 0.5989730358
0.49011365 -0.11087817 1.8330001 -0.09358417243 0.8267950416 0.554663837
0.021459924 -0.16342556 1.8830001 -0.3377031088 0.7289295793 0.595498383
-0.15987594 -0.25304106 1.312 0.7043001652 0.1142787114 0.7006437182
-0.26007107 -0.017242279 1.6390001 0.9151000381 0.1701077968 0.3655888736
-0.11233899 -0.37588015 2.0780001 -0.2165113837 0.7753553391 0.5932511091
0.078689598 0.10158112 1.6320001 -0.7291967273 -0.6832075715 0.03872424364
0.013508085 -0.075072214 1.214 -0.2827223241 -0.3579471111 0.8899112344
-0.2016023 -0.057635397 1.3870001 0.7330664992 -0.2952253222 0.6127442718
-0.2139733 0.11296727 1.516 0.8730159402 -0.119570449 0.4728066027
-0.14183195 -0.10473756 1.2444999 0.6744648218 0.1349733025 0.7258645892
0.071216017 0.098407589 1.4770001 -0.4475851357 0.6488758922 0.615327239
-0.074947104 0.022374285 1.2759999 0.1908351034 -0.7750712037 0.6023675203
0.035426978 -0.095498808 1.7570001 -0.3037430346 0.7880433798 0.5354697108
-0.19536692 -0.019935399 1.516 0.6021653414 0.3222422004 0.7304497957
-0.067669898 -0.20191824 1.245 0.06728681177 0.7224449515 0.6881466508
-0.22939737 -0.17414983 1.3700002 0.8639702797 -0.02675741538 0.5028313994
-0.15074721 0.18115002 1.4450001 0.5754874945 -0.1691292822 0.8001309037
-0.0077536786 0.17826709 1.4735 -0.6452551484 -0.6847656369 0.3387356102
0.012075499 0.058819365 1.3330001 -0.4431016445 -0.6419551373 0.6257432103
-0.1347577 0.055560511 1.4570001 0.4761570394 0.2597970963 0.8401070833
-0.072461762 -0.30752063 2.016 -0.2165113837 0.7753553391 0.5932511091
-0.13650577 0.029675167 1.3540001 0.6043871045 -0.5245645046 0.5996235013
-0.075501017 -0.045442749 1.2101663 0.08747042716 -0.2412781417 0.9665059447
-0.25091252 0.042504307 1.5640001 0.8841220737 0.09661497176 0.4571582973
0.015331849 -0.0024434454 1.2671999 -0.2298355252 -0.6786630154 0.6975615621
-0.19266678 -0.11605944 1.316 0.8255599737 -0.3272520602 0.4597356319
-0.14743166 -0.04228368 1.3036667 0.7520824075 -0.2922317982 0.5907390714
-0.04512291 -0.1353687 1.1970004 0.1056371853 0.3279874325 0.9387571812
-0.075669482 0.20219879 1.4150001 0.1168674827 -0.5407730937 0.8330104947
-0.14846875 -0.17546308 1.2830001 0.4626818001 0.2389236838 0.8537218571
-0.23117086 -0.062291551 1.5790001 0.8235859871 0.1645065993 0.5428109169
0.014348052 0.12135048 1.3870001 -0.2737188637 -0.7558258176 0.5948153138
-0.063779257 0.075472027 1.3335557 0.2164648026 -0.7172546387 0.6623358727
-0.17391364 0.11624449 1.4571428 0.734195888 0.06568177044 0.6757531166
-0.19466186 0.044628337 1.487154 0.6536305547 0.1985472292 0.7303054929
-0.19505395 -0.23095345 1.365 0.8866318464 0.2112102509 0.4114294648
0.035216577 0.14111967 1.4450001 -0.05112411082 -0.4730650187 0.8795429468
-0.12115095 -0.01855465 1.245 0.4093241394 -0.4566708803 0.7898768783
-0.10516537 -0.23957458 1.2830001 0.214339003 0.5660766959 0.7960000038
-0.038939256 0.0027967419 1.2270001 -0.3274438679 -0.5407619476 0.7748271227
-0.027670523 0.16396296 1.4133334 -0.6936016083 -0.6060957909 0.3893131018
-0.11509231 0.13510837 1.427 0.4922260642 0.03166754916 0.8698911667
-0.20204975 -0.1847312 1.317 0.7377930284 0.3113114536 0.598954618
-0.10742104 -0.15486404 1.244 0.7782720923 0.230580911 0.5840591192
-0.026723137 0.062855832 1.2880001 0.03514238074 -0.7155250311 0.6977025867
-0.086871684 -0.10442065 1.2233636 0.4722766578 -0.0075911819 0.8814176917
-0.086201757 0.068708748 1.4250001 0.4091667235 0.3720443249 0.8331660032
-0.033113454 0.12181021 1.3490001 0.4809497893 -0.5414502621 0.6895787716
-0.16736794 -0.024927141 1.3540001 0.870036304 -0.2904521823 0.39833951
-0.23067993 -0.01228473 1.557 0.8908939362 0.328719914 0.3134504855
-0.21420035 -0.11539125 1.3649999 0.852370441 -0.4108037949 0.3235813677
-0.023298293 -0.16802545 1.2320002 -0.3898435235 0.554025054 0.7355802059
-0.11440762 0.0045762002 1.3050001 0.6622545123 -0.5242444873 0.535337925
-0.034562305 -0.084827155 1.1946003 -0.0629260093 -0.1269329637 0.9899132848
-0.2274275 0.064214081 1.5260001 0.8322040439 -0.02889592946 0.5537160635
-0.2212619 -0.097651899 1.4100001 0.8311182857 -0.3555341065 0.4275954366
-0.17879529 -0.072452992 1.3330001 0.748249054 -0.4350637794 0.500842154
-0.0041402048 -0.033301648 1.2320002 -0.3330713212 -0.5314998627 0.778826952
-0.17141815 -0.13444559 1.2780001 0.7608843446 0.02482009865 0.6484126449
-0.1153381 -0.065790765 1.22525 0.684625864 -0.212656334 0.6971833706
-0.16309068 -0.088856302 1.2830001 0.8852350116 -0.2603116333 0.3854826391
-0.2510674 0.0069870334 1.5940002 0.8775900006 0.2977922857 0.3757067621
-0.041803848 0.19635141 1.4450001 -0.6366314292 -0.7163653374 0.2855189443
-0.10970256 -0.19835109 1.2640001 0.4671049714 0.2155531049 0.8575254083
-0.13534054 0.095616162 1.4351429 0.5021225214 0.1551989764 0.8507562876
-0.11683249 0.20791158 1.4330001 0.3489927948 -0.3021866083 0.8870666623
0.012080785 0.034182187 1.2956363 -0.1935064495 -0.6492211819 0.7355726361
-0.071599998 -0.16457313 1.2190001 0.3755450249 0.3620469272 0.8531634808
-0.074695759 0.15610175 1.41 0.4403265417 -0.1599200219 0.8834806681
-0.093476884 0.042122632 1.316375 0.5852380395 -0.5417267084 0.6033478379
-0.023496579 0.024910085 1.2654545 -0.6626322269 -0.4816288054 0.5735436082
0.042355273 0.10464244 1.4210001 -0.4551081955 -0.3589209616 0.8148940206
-0.19215348 0.14395261 1.4860001 0.7684447765 -0.1814855039 0.6136412621
-0.1760105 0.0055597397 1.4851818 0.5569478273 0.2473589629 0.7928572893
-0.0010607666 -0.11562356 1.21 -0.5205010772 0.2896342874 0.803237617
-0.024801603 0.088775828 1.322 -0.05097008497 -0.7118483186 0.7004812956
-0.16804823 -0.20977055 1.322 0.7264086604 0.3171797991 0.6096945405
-0.079419866 -0.011967377 1.2410001 0.3891306818 -0.7271273732 0.5655644536
-0.22386193 0.014975922 1.5253999 0.7805944085 0.1861120909 0.5966863632
-0.20309974 0.085443065 1.4864286 0.7424558997 0.09869074821 0.6625853777
0.0035693001 0.094763085 1.3567779 -0.5102980733 -0.6091337204 0.6070848107
-0.14302817 -0.057211265 1.2550001 0.6996729374 -0.2175545245 0.6805348992
-0.21230938 -0.14544952 1.3380001 0.8684021831 -0.1270471364 0.4793085456
-0.14199018 -0.22385333 1.2880001 0.6098822951 0.2888556719 0.7379742861
-0.070860088 -0.21932885 1.2830001 -0.09144359827 0.720059514 0.6878607273
-0.17198096 0.0770064 1.4640001 0.4914130867 0.3018314242 0.8169522285
-0.034755718 -0.045281816 1.2110434 -0.1298219115 -0.4674001932 0.8744617701
0.0031196184 0.14356557 1.424 -0.5987178087 -0.7124787569 0.3659385741
-0.038015246 0.14697616 1.381 0.2918228805 -0.6378706098 0.71271348
-0.05384925 0.09373758 1.3650001 0.7602909207 -0.5517495275 0.3428268135
-0.15289661 0.14431825 1.439 0.4226463437 -0.08708385378 0.9021011591
-0.15211131 0.03510261 1.483 0.2769015431 0.327239275 0.9034600258
-0.055148669 0.045477688 1.3043078 0.2984966934 -0.7929076552 0.5312222838
-0.10478084 0.17463322 1.422875 0.3098914325 -0.1035527512 0.9451159239
-0.14357539 -0.0046468591 1.325 0.6652991176 -0.4221661091 0.6157538891
-0.24734098 -0.03353776 1.5940001 0.850110352 0.1278743595 0.510842979
-0.1352907 -0.14534082 1.2642667 0.2794852853 0.4749290049 0.8344641328
-0.094050162 0.10394718 1.4115626 0.3871439993 -0.06002584472 0.9200632572
-0.10316496 0.0033254891 1.2653333 0.4283837676 -0.7521867752 0.5007019043
-0.21366207 -0.042187244 1.5523334 0.8388380408 0.3347238004 0.4293142259
-0.061912831 -0.104937 1.197 0.4738247097 -0.04561191797 0.8794371486
-0.20603859 -0.20603858 1.3430001 0.5833023787 0.672097981 0.4561169147
-0.18414384 -0.16502571 1.2961179 0.6143339276 0.2250288874 0.7562776208
-0.17069753 0.16171344 1.4640001 0.7899851203 -0.2361471653 0.5658251047
-0.015361118 -0.0043852511 1.2515626 -0.4690528512 -0.5929434299 0.654528439
-0.21274245 -0.22575921 1.3920001 0.7190933824 0.5904555321 0.3664245605
-0.11160668 -0.12352584 1.2360001 0.6075707674 0.2343172431 0.758915782
0.0038301565 0.15433981 1.455 -0.6071176529 -0.689902544 0.3942621946
-0.18287976 -0.23485926 1.3355001 0.7871789336 -0.01223949343 0.6166031957
0.048370957 0.10565236 1.452 -0.784688592 0.1219730154 0.6077716351
-0.017364429 -0.14387619 1.2126669 -0.4084089696 0.5102864504 0.7568420172
-0.057426047 0.009145095 1.2516667 0.56972754 -0.6788861156 0.4631674886
-0.055387799 0.18093348 1.4039999 -0.004751225002 -0.4653635025 0.8851069212
-0.083236486 -0.13524444 1.219 0.5418014526 0.08840715885 0.8358440995
-0.014050629 0.12326342 1.3740001 -0.671956718 -0.6317885518 0.3864160478
-0.20057257 -0.08767543 1.3700001 0.8372842073 -0.4244220853 0.3447042704
-0.11570049 0.065392092 1.4345001 0.4800502658 0.4209688604 0.7696343064
-0.065941475 -0.074887171 1.2121054 0.4688023329 -0.05497142673 0.8815909028
-0.10175838 -0.038078718 1.2270001 0.5572991967 -0.510745585 0.6546422839
0.01174821 0.16055886 1.4890001 -0.6502261162 -0.6904743314 0.316940397
-0.12301854 0.022896195 1.3280001 0.6162953377 -0.4716289639 0.6306712031
-0.19764449 0.015811561 1.5030001 0.6040900946 0.2426416576 0.7590785027
-0.2405135 0.014947166 1.5500001 0.8619895577 0.2748256326 0.4259634614
-0.055037722 -0.021800654 1.223 0.1415429264 -0.3874605894 0.9109554887
0.020737549 -0.024011899 1.245 -0.2984240651 -0.6093022823 0.7346385121
-0.12213194 -0.25453666 1.302 0.3040286303 0.4662866592 0.8307486773
-0.18308745 -0.063422449 1.365 0.8688761592 -0.3788809776 0.3185960352
-0.010371406 0.055318542 1.3145001 -0.573186934 -0.5920355916 0.5665249825
-0.19780041 0.11385132 1.4829999 0.7669618726 -0.08974999189 0.6353852749
-0.21386722 0.044537298 1.5089999 0.7410773635 0.09014958888 0.665340066
-0.16778874 -0.1883343 1.302 0.4740403295 0.5009279251 0.7241249681
-0.016468184 0.17228253 1.4450001 -0.6276667118 -0.6510149837 0.4268653691
-0.23779583 0.076094672 1.5500001 0.8740513921 -0.06442316622 0.4815431535
-0.12432516 -0.1742893 1.2679999 0.5501764417 0.04108802974 0.8340369463
-0.19848581 -0.10100982 1.3450001 0.839389503 -0.3994197249 0.3686315119
-0.12813887 0.16205797 1.4330001 0.418538183 0.01348134503 0.9080991149
-0.015840784 -0.065474734 1.2046667 -0.3851474822 -0.3918558657 0.835529983
-0.16182566 -0.044240106 1.3280001 0.7867764831 -0.3095683753 0.5339946151
-0.22776239 -0.14639018 1.3649999 0.8826922774 -0.1205557659 0.4542253017
-0.11384156 -0.093869343 1.2267144 0.4120025337 0.2949531376 0.8621233106
-0.095254116 -0.18459128 1.2443686 0.5726864934 0.3459371328 0.7432076931
-0.15430568 0.11627078 1.4373637 0.4937756956 0.1149249151 0.8619616032
-0.2153514 -0.17463902 1.3460001 0.8763458729 -0.02292670123 0.4811364412
-0.024978241 -0.11503296 1.196059 -0.2667880952 0.1324324757 0.9546128511
-0.15775353 -0.11422265 1.265 0.7743364573 -0.04316881672 0.6312998533
0.01892285 0.11984471 1.439 -0.1674443632 -0.5031710267 0.847809732
-0.045131672 0.037671242 1.2763335 0.4864938557 -0.7366607189 0.4697389901
-0.17692575 -0.093974531 1.3141429 0.7486389279 -0.4916082323 0.4448157549
-0.045952238 -0.17525969 1.2190001 -0.2139760703 0.5856481194 0.7818123698
-0.1512101 -0.083882973 1.2590001 0.8100146055 -0.1125327647 0.5755108595
-0.1984285 -0.14474241 1.3148572 0.8394029737 -0.1454895884 0.5236749053
-0.074158102 0.087697349 1.4040002 0.6218518019 -0.007107010577 0.7831026912
-0.0183837 0.14094169 1.3980001 -0.6688422561 -0.651239872 0.3585201502
-0.16094337 0.053134419 1.4640001 0.3859953582 0.2941217422 0.8743568659
-0.12353455 -0.044664118 1.2426 0.632203877 -0.2716645598 0.7256146669
-0.18242146 -0.038090583 1.3720001 0.8608115315 -0.2836384773 0.4225549698
-0.17710595 -0.11466186 1.295 0.8099356294 -0.2689244151 0.5212330818
-0.0048739742 0.019120976 1.2830001 -0.354195118 -0.6679359674 0.6545283198
-0.15187986 0.011773633 1.3430001 0.6421926022 -0.4770594835 0.6000024676
-0.094707564 -0.075554006 1.2138404 0.1491300613 0.2179104537 0.9645077586
-0.14733697 0.081946418 1.4530001 0.4748275578 0.4258084297 0.770211637
-0.03885299 0.097721159 1.3430001 0.6231552362 -0.5746130943 0.5305632353
0.011793797 -0.051463842 1.223 -0.3217294216 -0.4295042455 0.8438105583
0.054827746 0.12624937 1.4389999 -0.5595229864 -0.3091197014 0.7690117359
-0.21548472 0.074305385 1.5062728 0.8273056746 0.06414306164 0.5580779314
-0.092618376 0.023819325 1.2936667 0.6484605074 -0.6354814768 0.4191208482
-0.13176738 -0.01718705 1.307 0.6417010427 -0.41147089 0.6472337246
-0.095129877 -0.22441202 1.2661177 0.1102295816 0.5739096403 0.8114660382
-0.037655026 0.022374725 1.245 -0.09403840452 -0.7493929863 0.655413568
-0.21814272 -0.02423808 1.536 0.8187521696 0.3463356793 0.457926333
-0.0064437189 0.081446499 1.33675 -0.5881999135 -0.5642049909 0.5793907046
-0.26000354 0.036150225 1.5860001 0.9070818424 0.2509332597 0.3379867375
-0.011591286 -0.0948378 1.202 -0.3295457363 -0.03573428094 0.9434631467
-0.040409949 0.070428766 1.317 0.5640681386 -0.6008434892 0.5664046407
-0.13670959 -0.19492741 1.2729999 0.5454599261 0.107805185 0.8311747909
-0.23180069 0.035587657 1.5360001 0.8213912845 0.07091905177 0.56593889
-0.037399475 0.18450238 1.4220001 -0.6953656673 -0.5950107574 0.4030246139
-0.045227863 0.12518212 1.3730001 0.763828218 -0.2919432819 0.5756176114
-0.11495748 0.094838455 1.4222001 0.5218693018 0.111095719 0.845760107
-0.094276726 0.13397218 1.4150003 0.3765695393 -0.01277416106 0.9263002872
-0.065457195 0.2077174 1.4360001 -0.2147013396 -0.841421783 0.4958959222
-0.18608829 0.095363811 1.4700001 0.6440515518 0.08695416152 0.7600240707
-0.20867471 -0.082981765 1.3920001 0.8278009295 -0.3279660344 0.4551746249
-0.1268826 0.18592697 1.4330002 0.4411177635 -0.1449595988 0.8856646419
-0.073359452 0.062148657 1.3162858 0.1574227512 -0.7576019168 0.6334488392
-0.24943972 0.016537439 1.572 0.9027502537 0.3031518161 0.3051900864
-0.015345698 0.10459633 1.3466001 -0.5211865306 -0.5780905485 0.6278343201
-0.11885364 -0.21817735 1.273 0.4173756838 0.3874308765 0.8220065832
0.0590172 0.091804534 1.4960001 -0.1806169599 0.78710109 0.5897875428
-0.25288108 -0.014791558 1.6070001 0.9118866324 0.155853644 0.3797003925
-0.13111076 -0.079099879 1.2360001 0.6670139432 -0.1372011304 0.732303381
-0.2247519 0.094983332 1.5260001 0.881000638 -0.1174765602 0.4582980573
-0.13445699 -0.12634256 1.251 0.2944078743 0.4899701774 0.820520103
-0.17447923 0.035284303 1.4770001 0.3984153271 0.2365182042 0.8861852884
-0.025327479 -0.026044983 1.2265555 -0.4419572949 -0.4742459953 0.7614226937
-0.1547457 -0.15474881 1.2751428 0.3584964573 0.4564793706 0.8143137097
-0.23921099 -0.0055354931 1.5772501 0.8766783476 0.3199345767 0.3592728376
-0.092866175 -0.16170907 1.2270001 0.566650629 0.2700676024 0.7784410715
-0.14288761 -0.24484189 1.2970001 0.5129942894 0.3704210222 0.7743546367
-0.18526159 -0.21475878 1.3460001 0.7559184432 0.3816887736 0.5318843126
-0.20752628 -0.12380549 1.3450001 0.8436267972 -0.3471696675 0.409593761
-0.045884378 -0.062746778 1.2022666 0.1912693977 -0.420321703 0.8869868517
-0.08382123 0.17650308 1.4150002 0.286804378 -0.06187108159 0.9559891224
-0.062931873 0.09451887 1.3858001 0.7666412592 -0.3124328554 0.5609339476
