# .PCD v0.7 - Point Cloud Data file format
VERSION 0.7
FIELDS x y z normal_x normal_y normal_z
SIZE 4 4 4 4 4 4
TYPE F F F F F F
COUNT 1 1 1 1 1 1
WIDTH 206
HEIGHT 1
VIEWPOINT 0 0 0 1 0 0 0
POINTS 206
DATA ascii
-0.080825157 0.25519416 1.4040002 -0.6061102748 0.4878678918 -0.6281840801
-0.4947004 -0.49052569 2.381 -0.2919874787 0.8905845284 0.3487155139
0.44735685 -0.061078243 1.8830001 0.6431565881 0.7489007115 -0.159678936
-0.36231232 -0.04403438 1.1079999 -0.9693390131 -0.1561967432 0.1896957755
-0.12476457 0.072394259 1.7570001 -0.9960882068 0.08026828617 -0.03694923967
-0.40002647 0.27370235 1.2640001 -0.1643768549 0.7559458017 -0.6336609125
-0.11852796 -0.011179692 1.2755001 0.2220780253 0.7252529263 -0.6516820788
-0.20828372 0.1776828 1.126 0.557107389 0.1133237332 -0.8226719499
-0.23488791 0.34785226 1.3330001 -0.01256738324 0.8453841805 -0.5340108871
-0.41321597 0.1224981 1.1676668 -0.5930879116 0.4414604306 -0.6733196974
-0.12164363 0.15735553 1.273 0.6937828064 0.6080939174 -0.3858590722
-0.21475077 0.015869973 1.1354738 -0.002288333839 -0.5847896934 -0.8111817241
-0.25434029 0.27037013 1.2190001 0.01393951569 0.762914896 -0.6463485956
-0.28746775 -0.07743597 1.21 0.02988845482 -0.5622503161 -0.8264268041
-0.30549422 0.094672374 1.11332 -0.2065243125 -0.2055189461 -0.9566136599
-0.14430358 0.27530625 1.2942727 0.8734154105 0.1843587607 -0.4507298172
-0.11906167 0.085216731 1.149 0.750665307 0.2262693495 -0.6207284331
-0.39464426 -0.033543773 1.2342857 -0.621401608 -0.5694133639 -0.5381714106
-0.32735068 0.19738694 1.1618 -0.2085698396 0.705081284 -0.677760303
-0.13292773 0.075084403 1.3466002 -0.5784424543 0.5186215639 -0.6296316385
-0.34437451 0.33266115 1.3361251 -0.2008002102 0.8792896867 -0.4318898916
-0.078067169 0.1585364 1.3700001 -0.5770112276 0.1616202891 -0.8005853891
-0.18662919 -0.061861109 1.1960001 0.4997055531 -0.7039154172 -0.5047746301
-0.16690592 0.21312337 1.205 0.7317612171 0.4600365162 -0.5028836131
-0.39183581 0.035255149 1.149 -0.5183454156 -0.1927003562 -0.8331773877
-0.15078929 0.063236602 1.233 -0.7805754542 0.339315474 -0.5249447823
-0.25739327 -0.083658986 1.126 0.0443232283 -0.4064238369 -0.9126089811
-0.40544257 0.20641351 1.2033335 -0.3804155588 0.608617425 -0.6963251829
-0.30508441 0.013003597 1.1409999 0.002380757593 -0.6513028145 -0.7588142157
-0.13221958 0.31718642 1.3736 0.8614404202 0.4427675605 -0.2487513572
-0.31576833 0.29801476 1.2656 -0.1678947657 0.7528842092 -0.6363778114
-0.20396039 0.096972004 1.13 0.2275168896 -0.1259198487 -0.9655984044
-0.1283326 0.21663484 1.3430001 0.9593311548 0.05510728434 -0.2768518627
-0.15805049 0.14418608 1.1755456 0.8511568904 0.3397693038 -0.4001108706
-0.21092337 0.30913109 1.273 0.1072746515 0.823317349 -0.5573515296
-0.34556454 0.24518003 1.2135454 -0.260204941 0.6894680262 -0.6759639382
-0.25442883 0.21752511 1.164 -0.02259353921 0.7629875541 -0.6460182071
-0.33795655 -0.041806303 1.1746 0.7084038854 0.02349721268 -0.7054160833
-0.15347037 0.0023610825 1.197 -0.08583244681 0.4127115607 -0.9068086743
-0.25514644 -0.025062587 1.1764001 -0.0156382788 -0.5301885009 -0.8477355838
-0.28523257 0.16553901 1.1166818 -0.1535786539 0.4345067739 -0.8874781132
-0.35385063 0.14447083 1.1257694 -0.3296888769 0.01236256305 -0.944008708
-0.15065955 0.21464336 1.273 0.8532679081 -0.01940107159 -0.5211117268
-0.18144897 0.26893327 1.2320001 0.4986784458 0.6356271505 -0.5893198848
-0.15105726 0.024218209 1.3153334 -0.411390245 0.6143161058 -0.6733303666
-0.17462219 0.33554769 1.3244002 0.2852119803 0.8022336364 -0.5244762897
-0.40239525 0.32167882 1.3540001 -0.2805252075 0.8603368998 -0.4255889952
-0.15809588 0.036638089 1.1450001 0.6039471626 -0.4314197302 -0.6701677442
-0.37140641 0.086867154 1.126 -0.3471335173 -0.3073634207 -0.8860169649
-0.3120673 -0.0923016 1.1570001 -0.6422140598 -0.320679307 -0.6962225437
-0.25754434 0.054738015 1.123 -0.1124818176 0.005073075648 -0.9936408401
-0.12507181 0.12623075 1.2242306 0.7155776024 0.5388103127 -0.444558382
-0.10469899 0.25154239 1.4565001 -0.817355454 0.5514177084 0.1669387668
-0.27405986 0.32401055 1.295 -0.108582601 0.8360430002 -0.5378121138
-0.21094851 -0.047285352 1.1476668 0.3996087015 0.2386497855 -0.8850758076
-0.086834066 0.1053021 1.3468182 -0.3135914207 0.6048570871 -0.7319892645
-0.099684887 0.057290167 1.307 -0.3933912814 0.5252047777 -0.7545881271
-0.25472602 0.11486318 1.11224 -0.1112291887 0.2333615869 -0.9660074711
-0.38490343 0.17438532 1.1657273 -0.429312259 0.6016466618 -0.6735816598
-0.36451828 0.30471474 1.2953334 -0.3473348618 0.7621175647 -0.5463838577
-0.29613224 0.24366371 1.197 -0.1900591552 0.7306179404 -0.6558009982
-0.16210355 0.17515887 1.2410001 0.7351503968 0.6037275791 -0.3083292544
-0.11436554 0.26343396 1.3649999 0.9341337085 0.165749386 -0.3161034584
-0.10780616 0.16601682 1.3280001 0.7691335082 0.3676971495 -0.5227164626
-0.20742898 0.24147929 1.189 0.1740226299 0.7465546131 -0.6421622634
-0.093222104 0.20702571 1.381 0.2511585653 0.7573546767 -0.6027713418
-0.14345334 -0.031939596 1.2350001 0.2794190347 0.8684579134 -0.4095190465
-0.34421185 0.045271128 1.13336 -0.1861483306 0.1479089558 -0.9713247418
-0.36292052 -0.0040495428 1.1547499 -0.2913484871 -0.6109108925 -0.7361412644
-0.41305205 0.074070007 1.1735002 -0.7280228138 0.1056264564 -0.6773667932
-0.17546807 0.13511762 1.1317776 0.6438679695 0.1472784132 -0.7508282661
-0.25675902 0.30194154 1.257 0.04916583747 0.8179297447 -0.5732133985
-0.18511146 0.19454926 1.1656153 0.765250206 0.3926708996 -0.510099709
-0.12156737 0.23569185 1.4150001 0.6157596111 0.6337527633 -0.4681853652
-0.062072381 0.2660245 1.4450001 -0.7606319785 0.6476188898 -0.04504159093
-0.36556229 -0.063263334 1.2142142 -0.5204716921 0.2303000093 -0.822235465
-0.35554335 0.27664435 1.253889 -0.2971542478 0.7468499541 -0.5949071646
-0.28583872 0.3461383 1.3330001 -0.1303997785 0.8760781884 -0.4642013609
-0.39046821 0.24202575 1.2270001 -0.2884916365 0.6635402441 -0.6902803183
-0.3627401 0.2115984 1.189 -0.2842509151 0.6432848573 -0.7109050751
-0.18345153 -0.0053958832 1.1644286 0.809497416 -0.3195771277 -0.4925286174
-0.24641961 -0.064198792 1.1961112 0.01868121698 -0.5451735258 -0.8381150365
-0.19514865 0.054916155 1.1185998 0.1077926531 -0.1010355577 -0.9890260696
-0.29530808 0.27633393 1.2328891 -0.1341281086 0.7809673548 -0.6099997163
-0.1393238 0.29738241 1.3355 0.9002159834 0.362713635 -0.240935564
-0.13333324 0.10553589 1.1846924 0.7618006468 0.4694678187 -0.4463851452
-0.32073903 0.32073903 1.302 -0.1336144954 0.8945158124 -0.4266012907
-0.25513414 0.0075749578 1.1453637 -0.05537993088 -0.7158589363 -0.6960453391
-0.14804707 -0.044757467 1.1952858 0.6784701943 -0.3539069295 -0.6437609196
-0.29527664 -0.034823343 1.1836667 0.05863464251 -0.4829797149 -0.8736661673
-0.17227362 0.30601439 1.2928333 0.4530377388 0.6739815474 -0.5835286379
-0.13662411 0.18466799 1.3047779 0.8291064501 0.2241302133 -0.5121992826
-0.23992263 0.1583295 1.108 0.3988975585 -0.1178385392 -0.9093925357
-0.31442696 0.13333926 1.13 -0.1696525663 -0.1415144056 -0.9752905369
-0.16492067 0.08448147 1.1308569 0.4104396105 0.2222609222 -0.8843864799
-0.30482474 0.053403545 1.126 -0.1056554765 0.05479407683 -0.9928920269
-0.28524497 0.19601405 1.1436666 -0.2616047263 0.6781648993 -0.6867716908
-0.12685515 0.2552307 1.3275386 0.8976844549 0.05807491392 -0.4367950261
-0.15596548 0.25369579 1.2581999 0.8648453355 0.2800312936 -0.4166833758
-0.21432483 0.28721705 1.2410001 0.1298380196 0.7480624914 -0.6508030295
-0.37803793 0.12837118 1.153 -0.5709045529 0.2394226193 -0.7853310108
-0.24498527 0.19471194 1.1344446 -0.02945050597 0.6463036537 -0.7625117898
-0.17205372 0.027785074 1.2190001 -0.06602314115 0.3976616263 -0.9151536226
-0.20853621 0.33113715 1.307 0.07338572294 0.85566324 -0.5123035908
-0.11438589 0.024105178 1.2970001 -0.1723926365 0.4447673559 -0.8788986206
-0.21562162 0.13086407 1.1190001 0.1322480887 0.4763213098 -0.8692689538
-0.22698535 -0.092066653 1.1456667 0.507623136 -0.391913414 -0.7672826052
-0.21543646 0.21848989 1.1610001 0.01662500203 0.737185359 -0.6754860282
-0.39551926 0.30788007 1.3153334 -0.3101353645 0.8145645857 -0.4902046323
-0.24561471 0.24422841 1.1880001 0.02590767294 0.7225441933 -0.6908391118
-0.22297768 -0.013016892 1.1569999 -0.2068258226 -0.6071805358 -0.7671732903
-0.34502006 -0.080261461 1.189 -0.03699865192 -0.9440711737 0.3276593685
-0.10529059 0.12690918 1.3700002 -0.3029358387 0.463236481 -0.8328516483
-0.13789967 0.038187601 1.21 -0.1699634194 0.4685511589 -0.8669326901
-0.35445297 0.17458121 1.1458001 -0.3516820967 0.6044918299 -0.7147792578
-0.32482529 0.22468036 1.1858888 -0.2659463882 0.6611626148 -0.7015244365
-0.15037157 0.15144023 1.2165 0.8276641965 0.5041038394 -0.2466806322
-0.13843004 0.2253726 1.3050001 0.9278633595 0.07919133455 -0.3644151092
-0.31478012 0.17484167 1.1335293 -0.234307155 0.6483740807 -0.7243695259
-0.33494377 0.079332329 1.1251428 -0.1169003323 -0.5445285439 -0.8305557966
-0.28483343 -0.0053682867 1.1630869 0.04188024253 -0.6386487484 -0.768357873
-0.32485396 -0.0074426979 1.1616155 0.04728952795 -0.6136215329 -0.7881829143
-0.17637499 0.29072073 1.2590001 0.4762811959 0.7089937925 -0.5200808048
-0.15181062 -0.014405386 1.2640001 0.1751520336 0.7983312011 -0.5761849284
-0.21503143 0.26507095 1.2142857 0.07622304559 0.7713618279 -0.6318156719
-0.1536411 0.11826321 1.153 0.7052234411 0.4042814076 -0.5824229121
-0.34673971 -0.017130243 1.123 -0.9621409178 0.2048201412 0.1798154265
-0.21845745 -0.045555107 1.1810001 -0.2984232605 -0.5556334257 -0.776025176
-0.40120912 0.098544344 1.1470001 -0.758325398 -0.09299333394 -0.6452091336
-0.10089557 0.18873405 1.3540001 0.6418319345 0.6135462523 -0.4600138664
-0.12864383 0.049834993 1.322 -0.4097816348 0.60918957 -0.6789455414
-0.27482602 0.083379284 1.123 -0.07531827688 -0.4840818346 -0.8717751503
-0.31537601 -0.064657338 1.1970003 0.06087339669 -0.5396506786 -0.8396853805
-0.37803793 0.068734169 1.153 -0.5692871809 -0.1059334427 -0.8152853847
-0.41034573 0.15063325 1.1850001 -0.654733181 0.2267899662 -0.7210345268
-0.23420863 0.085410796 1.1235354 0.1738347709 -0.2454782575 -0.9536885619
-0.12564825 0.10171525 1.365 -0.5013474226 0.5857134461 -0.6368598342
-0.069308393 0.22981203 1.3870001 -0.4724017382 0.4376229048 -0.7650639415
-0.17543145 0.16407537 1.1468003 0.33821401 0.5645411015 -0.7529307008
-0.27836797 0.030709634 1.13 -0.1119554043 -0.3835012615 -0.9167293906
-0.17748205 -0.035358984 1.1747779 0.8166111708 -0.1881484985 -0.5456613898
-0.34437704 0.11373146 1.1250771 -0.1845845431 0.4109497964 -0.8927758932
-0.097793922 0.081494935 1.3280001 -0.3361634016 0.5955614448 -0.7295894027
-0.2452019 0.33113715 1.307 0.02136957087 0.8635749221 -0.50376755
-0.096104138 0.22832584 1.4330001 0.2055173814 0.8837784529 -0.4203549623
-0.22484778 0.04473662 1.1249089 0.0281194225 -0.1586964726 -0.9869269133
-0.16254102 0.23394376 1.2340002 0.8090599179 0.3955601752 -0.4346886575
-0.28507572 0.12203516 1.1190002 -0.1133162528 0.3426222801 -0.9326142669
-0.14416486 0.066080838 1.153 0.6910364628 -0.1178496778 -0.7131479979
-0.29412878 0.21440397 1.1679332 -0.1888822764 0.7079378366 -0.6805494428
-0.17867693 0.24211253 1.2060001 0.7401558757 0.4751155376 -0.475851357
-0.32553685 0.27573317 1.2410001 -0.1952251643 0.7521235347 -0.6294420958
-0.37736607 0.3258391 1.3360001 -0.2831948996 0.8588672876 -0.4267876148
-0.16144781 0.17584443 1.1730001 0.9074205756 0.3328285515 -0.2565404773
-0.2803387 -0.10076232 1.138 -0.315766871 -0.4744417667 -0.8217033148
-0.1341951 0.15651809 1.2420001 0.6500412226 0.6467069983 -0.3990193903
-0.18603042 0.026089955 1.1360003 0.42904073 -0.52295506 -0.7365066409
-0.14620082 0.17502135 1.2752222 0.691711843 0.5563085079 -0.4604949355
-0.3918139 0.2901907 1.2880001 -0.1737697124 0.8199393153 -0.5454389453
-0.095323473 0.16497815 1.3940001 -0.7607446313 0.201353997 -0.6170284748
-0.33509266 0.013003598 1.1409999 0.03132059798 -0.5779076815 -0.8155009151
-0.36533576 0.25647336 1.2344002 -0.2699603736 0.7255401611 -0.6330188513
-0.089194693 0.26758409 1.4330001 -0.5394008756 0.8413485885 0.03433921933
-0.34544218 0.29742214 1.2738333 -0.2769846022 0.7344186902 -0.6196036935
-0.30029166 -0.072828203 1.138 -0.5402780771 -0.2261187583 -0.8105368018
-0.1881382 0.22253279 1.177 0.6827250719 0.507771194 -0.5254092216
-0.31474891 0.33569002 1.3268001 -0.2186843008 0.8559806347 -0.4684809148
-0.36462706 0.024664462 1.1378185 -0.3540776968 -0.2995201349 -0.8859552145
-0.15482004 0.31632519 1.3140001 0.5585460067 0.64805305 -0.5177388787
-0.28482905 0.29493579 1.2555884 -0.1005220637 0.7823697329 -0.6146485806
-0.14357407 0.0031576655 1.2855 0.1409072578 0.7174227238 -0.6822387576
-0.2755585 -0.056668859 1.1938571 -0.04458000138 -0.5363647342 -0.8428080678
-0.26482961 0.14176753 1.123 0.009175806306 -0.3262785077 -0.9452291727
-0.20668276 0.34619164 1.335 0.1118664294 0.8581534624 -0.501057446
-0.37514031 0.15538113 1.1434615 -0.6051751375 0.2593638301 -0.7526575923
-0.14490579 0.24510199 1.2857778 0.9407983422 -0.01148296427 -0.3387721777
-0.29353955 0.31034526 1.2780001 -0.1057491899 0.8356047273 -0.5390564799
-0.20679922 -0.073833592 1.1563333 0.6032322645 -0.2527130842 -0.7564700246
-0.23864093 0.31034526 1.2780001 0.02616601065 0.8142066002 -0.579985261
-0.40374061 0.18446463 1.1839093 -0.3723178506 0.5649619102 -0.7363405824
-0.32153416 -0.065929718 1.1570001 -0.6397811174 -0.3054487407 -0.7052525282
-0.11071774 0.15637454 1.302 0.7833942175 0.5489342213 -0.2914870679
-0.37189251 -0.028853729 1.2190001 -0.6738814116 -0.2594124973 -0.69180125
-0.31481609 0.25553924 1.2137858 -0.1684548408 0.7139641047 -0.6796162128
-0.36386436 0.19223933 1.1672858 -0.408551693 0.6722280383 -0.6174098849
-0.12340619 0.2155855 1.37 0.8737950325 0.4036476016 -0.2712025046
-0.077119924 0.18556532 1.3745002 0.8740329146 0.1173703074 -0.4714770913
-0.24658422 0.028231824 1.126 0.03901898116 -0.5485386848 -0.8352142572
-0.22826646 0.10684814 1.108 0.2362337112 -0.290723294 -0.9271858335
-0.14014919 0.12961166 1.202 0.7838629484 0.5211474895 -0.3375858068
-0.10585224 0.21662784 1.404 0.04594123736 0.8401815891 -0.540355742
-0.12036546 0.19281845 1.3330001 0.7430149317 0.4884243608 -0.4575701952
-0.21521239 0.19819435 1.1417999 0.1952195168 0.6605485082 -0.7249586582
-0.35355878 0.32130972 1.3136667 -0.2095218301 0.8757407665 -0.4349467754
-0.27562723 0.23161697 1.1765556 -0.1406363845 0.6780493855 -0.7214363813
-0.14203469 0.094731919 1.161889 0.7718446851 0.3977461457 -0.4960381389
-0.38532323 0.0071379961 1.1634001 -0.4970460236 -0.5553171635 -0.6667593718
-0.2318892 -0.067593448 1.1372001 0.5326071978 -0.2886767685 -0.7956100106
-0.11899668 0.13803847 1.253 0.7837184668 0.5186272264 -0.3417764306
-0.38209516 0.22060089 1.204 -0.285702914 0.671122849 -0.6840818524
-0.22459073 0.15241601 1.13 0.3269418478 -0.01368978247 -0.9449452758
-0.16997427 0.016284959 1.161 0.6333998442 -0.609482944 -0.4767967165
-0.39540425 0.1433766 1.1654445 -0.6919101477 0.1247461289 -0.7111250162
-0.11905075 0.24401461 1.3490001 0.9296299219 -0.1087677032 -0.3520764709
-0.19556053 0.15522985 1.1340001 0.2772182524 0.4193314314 -0.8644716144
-0.16141157 -0.023357615 1.193 0.3286856115 0.1043511704 -0.9386568069
