# .PCD v0.7 - Point Cloud Data file format
VERSION 0.7
FIELDS x y z normal_x normal_y normal_z
SIZE 4 4 4 4 4 4
TYPE F F F F F F
COUNT 1 1 1 1 1 1
WIDTH 206
HEIGHT 1
VIEWPOINT 0 0 0 1 0 0 0
POINTS 206
DATA ascii
-0.12510091 0.17532621 1.2525333 -0.8051093221 -0.3015518785 0.5107498765
-0.28280535 -0.19352095 1.0646666 0.5957133174 0.3913711309 0.7013944983
-0.43112275 0.073758349 1.1850001 0.4593428671 -0.6161961555 0.639770627
-0.21657355 0.055231716 1.0462177 -0.529835701 -0.2026713192 0.8235280514
-0.11237919 -0.037601639 1.2116001 0.7026676536 -0.510880053 0.4952370226
-0.31041101 0.21944807 1.2970001 0.3905507624 -0.8648476005 0.3154499829
-0.40555644 -0.085544765 1.1237501 0.6431621313 -0.143896848 0.7520878911
-0.26189539 0.17023201 1.149 0.334848702 -0.7927680016 0.5093085766
-0.087329783 0.06528537 1.3540001 -0.9536175132 0.2359641194 0.1869080365
-0.14716065 -0.12183976 1.087 -0.4534241855 0.3752193451 0.8084658384
-0.35560024 0.034161892 1.0713124 0.3777886033 0.2045654655 0.9030109048
-0.14390922 0.083609015 1.156 -0.2333967984 -0.8847682476 0.4033746719
-0.26544914 -0.065935142 1.05328 0.1815063953 0.4835524857 0.8562899232
-0.35747835 0.15805423 1.21 0.5113201141 -0.6871147156 0.5161638856
-0.051418252 0.19749284 1.3330001 0.815350771 -0.4994546771 0.2928278744
-0.065314665 0.063476436 1.2450002 -0.1696024686 -0.4388612211 0.8824034333
-0.21544734 0.2353777 1.243 0.07016816735 -0.8172720671 0.5719639659
-0.1602722 -0.016512893 1.108 -0.9057690501 -0.1513149738 0.3958361447
-0.29497573 0.10586685 1.083238 0.3913885355 -0.7024648786 0.5944393277
-0.32794082 -0.12021291 1.097 0.1037466154 0.5846297145 0.8046395183
-0.41450927 0.0049531669 1.13 0.5842989683 0.003507263027 0.8115308881
-0.18118508 0.16669028 1.1810001 -0.7084192634 -0.3472573757 0.614454627
-0.36150017 0.094114952 1.1365455 0.5676833391 -0.6615043879 0.4900485873
-0.2316504 -0.12837292 1.1010001 0.09611934423 0.5175597072 0.8502311707
-0.20514642 0.11499156 1.1034665 -0.5030964017 -0.6830509901 0.5294670463
-0.097177364 -0.085114427 1.146143 0.2689465582 -0.7871621251 0.5550166965
-0.30372134 -0.18343706 1.1434001 0.1425689012 0.5977118611 0.7889325619
-0.19587564 -0.023655886 1.0356843 -0.3225669563 0.2125740945 0.9223680496
-0.058259759 0.14004751 1.2780001 0.2509009838 -0.4088115692 0.8774518967
-0.28397226 0.20176899 1.2177501 0.357824266 -0.7742666602 0.5219894052
-0.34562728 -0.04459459 1.0844544 0.3784093857 0.1593645364 0.9118164778
-0.28469485 0.014647348 1.0442002 0.3497267067 -0.06595548987 0.9345272183
-0.15411313 0.23495629 1.2858572 -0.6588200331 -0.6747295856 0.3327104151
-0.12630084 0.10785963 1.223 -0.381112963 -0.6086925268 0.6958780885
-0.21367072 -0.17538469 1.0505716 -0.3310301602 0.2802756429 0.9010353088
-0.12897563 0.014277393 1.163 -0.1349277347 -0.7647336721 0.6300610304
-0.1665976 0.0520164 1.0947001 -0.6290612817 -0.6219344139 0.4663469791
-0.10830516 0.16468534 1.3162857 -0.6471910477 -0.6012808681 0.4686204195
-0.11213268 0.069091856 1.2920001 -0.9712554216 0.1578785032 0.1781495214
-0.12370205 0.038724121 1.2270001 -0.6412399411 -0.7283440828 0.2415083647
-0.19390698 -0.085647404 1.0600002 -0.2990995646 0.158471033 0.9409709573
-0.32311413 0.14236753 1.1564286 0.4728004038 -0.7436122298 0.4727585614
-0.41198161 0.12800473 1.2270001 0.5936769247 -0.6152977347 0.5186100602
-0.22904406 0.1997599 1.1930001 -0.07904098183 -0.829921484 0.5522524714
-0.16667609 0.20475993 1.2251821 -0.6544628143 -0.5225152373 0.5464944839
-0.33833346 0.19787973 1.2516667 0.4004565179 -0.7727140784 0.4924911261
-0.078153834 0.0077409665 1.2117144 0.5498147011 -0.5442059636 0.6336747408
-0.13541734 -0.065035239 1.0933214 0.07796404511 -0.3562454879 0.9311341047
-0.39061609 0.053666901 1.113 0.6887488365 -0.4597873688 0.5605537891
-0.25578064 0.13995545 1.1010001 0.2579846978 -0.7924916148 0.5526309013
-0.26114321 0.23993929 1.273 0.3169205785 -0.8803217411 0.3529801071
-0.26694605 0.077973709 1.0464 -0.232139349 -0.00710237911 0.9726566076
-0.28173262 -0.14525315 1.1120001 0.06111892685 0.4133225977 0.908531189
-0.3970874 -0.035326682 1.1010001 0.6435109377 0.367970407 0.671186626
-0.16704276 0.014816105 1.0560715 -0.7344521284 -0.2463390082 0.632374227
-0.21286501 0.1555898 1.1416153 -0.5329601169 -0.5706092119 0.6247868538
-0.1810378 0.11854199 1.1623334 -0.8744267225 -0.334831953 0.3510918021
-0.33888954 0.077546425 1.092 0.5366487503 -0.592037499 0.6012484431
-0.098640777 0.07450527 1.197 -0.7073975801 -0.4680563807 0.5296337008
-0.38961434 0.16003989 1.2590001 0.5643069744 -0.7143547535 0.4138296545
-0.39328113 0.10688115 1.1836667 0.659208715 -0.5810216069 0.4773444533
-0.10527013 0.12964848 1.2640001 -0.3725431263 -0.8375174403 0.3997200429
-0.18475182 -0.13518552 1.0561999 -0.5553277731 0.006461484823 0.8316065073
-0.27539867 -0.10101129 1.087 0.0565206334 0.5930541158 0.8031763434
-0.24489623 -0.014619146 1.0423335 0.3578785956 -0.1814309657 0.9159725308
-0.30386245 -0.024778105 1.0664998 0.2729508281 0.3218940496 0.9065771103
-0.32088831 -0.17086263 1.097 -0.6514088511 -0.7484148741 0.1246664152
-0.14726953 0.1546496 1.2153077 -0.8021170497 -0.1776252389 0.570138216
-0.31529608 0.054422334 1.0552083 0.2840987742 0.1733693928 0.9429904222
-0.086971469 0.16798599 1.3590001 -0.3974207342 -0.6307735443 0.6664694548
-0.12896906 0.04725584 1.123 -0.6034624577 -0.4935991466 0.6262530684
-0.31415546 0.17319229 1.1955 0.3769172728 -0.7701715231 0.514557302
-0.37411731 -0.10322861 1.0936666 0.4523014426 0.3347076774 0.8266766071
-0.37717339 0.0071537755 1.1026001 0.6076486707 0.04801048711 0.792753458
-0.17317675 -0.046493493 1.0736001 -0.8914462924 0.302131772 0.3376979232
-0.31558424 -0.075697184 1.0685 0.1942490935 0.3435122371 0.9188398123
-0.1367074 -0.10896967 1.13 0.178392902 -0.8795781732 0.4410422146
-0.075852953 0.096292317 1.2751428 -0.8881779909 0.1364708245 -0.4387659431
-0.23697548 0.10505415 1.0724736 -0.56350106 -0.4456422329 0.6956073046
-0.25813365 -0.18113774 1.126 0.09083003551 0.5587521791 0.8243457675
-0.32176471 0.11085187 1.1190001 0.3986078501 -0.7315346599 0.5531445146
-0.42138299 0.044656526 1.149 0.5231310725 -0.6662595272 0.5314434767
-0.086330332 -0.047808435 1.177 0.4999496639 -0.5105147362 0.6995891929
-0.071633309 0.18192586 1.2970001 -0.3493749499 -0.5191363096 0.7800222039
-0.17866993 0.087854274 1.126 -0.7474136353 -0.5478392243 0.3758257926
-0.35365608 -0.13373549 1.13 0.4807095528 0.5096365809 0.7135747075
-0.2352581 -0.094897702 1.0731332 0.2917928398 0.6172758341 0.7306349874
-0.22517546 -0.056243859 1.0425003 -0.0006801883574 0.4405993819 0.897703588
-0.19921987 0.082142793 1.077 -0.7151819468 -0.4377906322 0.5448432565
-0.34324008 -0.0054176245 1.0656667 0.4430204928 -0.2106524557 0.8714117408
-0.36114281 0.1320751 1.177 0.4683190882 -0.7224543095 0.5086619854
-0.14285429 0.018216841 1.0936667 -0.8614059687 -0.1129588559 0.4951969981
-0.12217051 -0.067297317 1.1810001 0.3050573766 -0.736966908 0.603174746
-0.24473527 0.025769098 1.0359312 -0.1001389772 0.2203307301 0.9702714086
-0.15436411 0.11512906 1.1946002 -0.7265191674 -0.2975921631 0.6193615794
-0.079665333 0.079665333 1.317 -0.7780695558 0.6057215333 0.1664609611
-0.17414592 0.23727567 1.2511111 -0.4901652634 -0.7479274273 0.447596401
-0.20486656 0.014513766 1.0439143 0.1432368308 -0.3932127357 0.9082218409
-0.10970256 0.038783733 1.2640001 -0.05040498823 -0.939718008 0.3382150233
-0.1342745 0.043494705 1.189 0.9040168524 -0.4202970564 -0.078127563
-0.24624018 0.21836394 1.223 0.1630835235 -0.8525592089 0.4965345263
-0.25466549 -0.1761837 1.0439999 0.1771739721 0.5139087439 0.8393492699
-0.089935482 0.092102602 1.2360001 -0.7811947465 -0.3507163227 0.5164617896
-0.17448851 -0.14553221 1.101 -0.604932487 0.6734294891 0.4249111414
-0.26668873 0.1867791 1.1836667 0.3792870641 -0.7628029585 0.5237107277
-0.16604923 -0.08767017 1.087 -0.4000881314 -0.5113664269 0.7605484128
-0.28747302 0.13881403 1.123 0.3538370728 -0.697909236 0.6226732731
-0.14146829 0.20721595 1.2640001 -0.7149624228 -0.5310098529 0.4548156559
-0.40859154 -0.048712861 1.1340001 0.540805757 0.273239851 0.7955306768
-0.29403263 0.16337718 1.1661999 0.3421901166 -0.7973920703 0.4970631301
-0.10692528 -0.0075603737 1.2320001 0.7208865881 -0.425260514 0.5472440124
-0.18558121 0.045449838 1.0633333 -0.4315347075 -0.5597369075 0.7074407339
-0.084549464 0.14052945 1.3032501 0.05048400164 -0.9599030018 0.2757491469
-0.39933482 0.076598749 1.1650001 0.6991184354 -0.5023004413 0.5088493824
-0.16377535 -0.051667225 1.1120001 -0.005033527035 -0.3861942291 0.9224037528
-0.21628259 0.18242471 1.1646667 -0.2921877801 -0.7623579502 0.5774397254
-0.19567524 0.20324349 1.2043334 -0.2319328487 -0.7888185382 0.5691857934
-0.42607462 0.098297708 1.21 0.5754102468 -0.6147148609 0.5394707322
-0.11630052 0.19098482 1.2830001 -0.9146093726 -0.3736474812 0.1545226723
-0.12131376 0.15473531 1.2830001 -0.8842217922 -0.3634615839 0.2933385372
-0.37768018 -0.064430229 1.1043334 0.6615825295 0.01336341444 0.7497532368
-0.34747559 -0.085211992 1.08 0.3872098923 0.1535967439 0.9091075659
-0.13555896 -0.0079732835 1.1370001 -0.1251963377 -0.7013317347 0.7017547488
-0.13287874 0.13568534 1.2438571 -0.7522466183 -0.4360220134 0.4939734936
-0.083223335 0.034707431 1.2328891 0.1072976887 -0.6083171368 0.7864079475
-0.12664689 0.091018163 1.1855716 -0.3926292658 -0.8448085785 0.3635116518
-0.31597361 0.015076074 1.0634583 0.4334543347 -0.3019413948 0.8490869999
-0.38251749 0.13565414 1.2048572 0.5612939596 -0.6828318238 0.4676427543
-0.27519777 0.045435164 1.0537275 0.2788911164 -0.262165904 0.9238445759
-0.20780252 -0.11415712 1.07175 0.6576071382 0.3034602404 0.6895394921
-0.047987856 0.07811977 1.273 0.1006084904 -0.5511628389 0.8283100128
-0.23700859 -0.1602722 1.108 0.08208279312 0.4697211087 0.8789905906
-0.093520172 0.049646508 1.317 -0.9605602622 0.09779713303 0.260307014
-0.078089081 -0.017697856 1.1876668 0.6392802 -0.4468243718 0.625834465
-0.27403176 -0.014657707 1.0569998 0.2968938649 0.1166334972 0.94776088
-0.19218989 0.1250807 1.1324 -0.7781543732 -0.411473453 0.4745159447
-0.32593569 0.18646471 1.2238001 0.4055063426 -0.7570880651 0.5122326612
-0.13524191 0.21600746 1.3036667 -0.7138414383 -0.6113358736 0.3416120708
-0.1189087 0.065668978 1.1678572 -0.8995565176 -0.2643321455 0.3477449715
-0.15781051 -0.011273495 1.0715001 -0.8968424797 0.2924769819 0.331859529
-0.22519383 0.14538285 1.114579 -0.5189869404 -0.6538616419 0.5505610704
-0.13185942 -0.084947899 1.1570001 0.1434493363 -0.8345330954 0.5319555998
-0.36571506 0.055645224 1.091643 0.5629070997 -0.5188784003 0.6433512568
-0.15220533 0.06797564 1.12375 -0.3978178203 -0.728887558 0.5571929216
-0.3741903 -0.025109965 1.0828182 0.518643558 0.1223267466 0.8461944461
-0.26598856 0.11663788 1.0816666 0.3006313443 -0.7333353162 0.6097869873
-0.21142131 -0.13719571 1.041 -0.3604353666 0.05443682522 0.931194365
-0.31011644 -0.15850396 1.123 -0.1734689027 0.5611214638 0.8093523383
-0.2708979 0.22085249 1.2410001 0.2934926152 -0.8529627323 0.4316440821
-0.31351605 0.083057411 1.0748572 0.4758209586 -0.5954614878 0.6473175883
-0.42648605 -0.022865219 1.1340001 0.7567485571 0.07090678811 0.6498491168
-0.19311832 -0.056467734 1.0513334 -0.6143863201 0.3073496521 0.7266812325
-0.40215063 0.023436734 1.1062499 0.6631399393 0.03306460008 0.7477647662
-0.29531443 -0.055038486 1.0608182 0.3813893795 0.03590357304 0.9237169623
-0.36790967 0.077403352 1.1120001 0.5095219612 -0.63431108 0.5814093351
-0.30515173 -0.10354358 1.0860624 -0.03308261186 0.5703775883 0.8207161427
-0.17110007 -0.11250053 1.0712001 -0.6440708637 -0.1780770719 0.7439497709
-0.22232267 0.25011301 1.268 0.1509549469 -0.9075059891 0.3919763565
-0.33490551 0.15463474 1.1850001 0.4672707319 -0.7098687887 0.5270145535
-0.17259185 0.18439588 1.2043529 -0.7154724598 -0.3886496127 0.5805606842
-0.1363371 -0.094744101 1.0820799 -0.148443386 -0.2039084733 0.9676703215
-0.3543241 0.1787874 1.2360001 0.4634779394 -0.7296670675 0.50276649
-0.37801868 0.15876783 1.2320001 0.5629228354 -0.6972669959 0.4437753856
-0.38239235 0.10143033 1.1570001 0.582564652 -0.544113636 0.6037870049
-0.13742572 -0.03358959 1.1147499 -0.2603754997 -0.5852459669 0.767913878
-0.14553601 0.18471639 1.233778 -0.6891284585 -0.4417703748 0.5744048357
-0.16356564 0.096357256 1.1734446 -0.59554106 -0.6156561375 0.5160410404
-0.28793767 0.2296779 1.2780001 0.3800012767 -0.8714646697 0.3100779951
-0.23190933 0.12506232 1.0935456 -0.5354360342 -0.5662846565 0.6266018748
-0.10858393 -0.10266117 1.126 0.1863358468 -0.8761487007 0.4445699453
-0.23510447 0.078987665 1.0600001 -0.08684958518 -0.5519836545 0.8293197155
-0.31006384 0.2034454 1.2410001 0.3760508597 -0.7811436653 0.4983977675
-0.19531092 0.22112703 1.2270001 -0.124494426 -0.729426384 0.6726353765
-0.16434114 0.14550065 1.1940438 -0.73324579 -0.1994451433 0.6500555873
-0.33444747 -0.14528364 1.11224 0.3879143596 0.2088526189 0.8977209926
-0.29510009 0.074547254 1.0541112 0.3158008456 -0.4141249955 0.8536804318
-0.3469466 0.11672659 1.1458 0.5494659543 -0.6293950677 0.5494989157
-0.29750976 -0.17343621 1.0810909 0.1653723419 -0.7995553017 0.5773762465
-0.25540638 0.15573406 1.1243125 0.2114522606 -0.7739975452 0.5968381166
-0.24430157 0.053471532 1.0455716 0.2718888521 -0.4518211782 0.8496670127
-0.2846576 -0.17322654 1.1248333 0.1858738661 0.5679628253 0.8017911911
-0.10908714 0.1818119 1.3380001 -0.6896402836 -0.5928746462 0.4158076048
-0.18933661 0.14436917 1.1570001 -0.8189582229 -0.3212548792 0.4755025804
-0.398278 -0.010737851 1.1135001 0.6272929907 -0.3182169795 0.7108033895
-0.15956473 0.03210178 1.077 -0.6992728114 -0.4686627686 0.5397895575
-0.28797624 -0.079732835 1.0700001 0.1250997633 0.6282357574 0.7678996325
-0.17524894 -0.024739383 1.0553043 -0.7151199579 0.2814920545 0.6398169398
-0.085414208 0.15561767 1.3346667 -0.6516462564 -0.6477296948 0.3947193623
-0.047216017 0.10483556 1.278 -0.3766999543 -0.3336687684 0.8641541004
-0.24571103 0.23474394 1.25125 0.2442999184 -0.8759244084 0.4160216153
-0.23469856 0.17023201 1.149 -0.143010214 -0.8188780546 0.5558658242
-0.10618888 0.12027516 1.2360001 -0.418924123 -0.7105939388 0.5652953386
-0.18251838 0.077119492 1.1015714 -0.7181987762 -0.5507626534 0.4252658188
-0.4215031 0.030600926 1.126 0.7951643467 -0.277112782 0.5393720269
-0.33664033 0.057985034 1.071125 0.4763477743 -0.4769965708 0.7386251092
-0.26396224 -0.12304743 1.097 0.1497889459 0.4191203117 0.8954895139
-0.085664935 0.11587253 1.2528334 -0.7493533492 -0.431551218 0.5022281408
-0.29464322 -0.12462234 1.1019598 0.007610487752 0.4345690906 0.9006063342
-0.35503024 -0.12222531 1.1064999 0.2836604416 0.7040176392 0.6510728598
-0.19311389 0.24749878 1.266 -0.164023295 -0.9264799953 0.338719964
-0.094010226 0.0879694 1.2920001 -0.5225783587 0.8480024338 0.08833868802
-0.17926607 -0.0036399201 1.0380001 -0.5272340775 -0.01723183319 0.8495453596
-0.15255696 0.0070901872 1.155 -0.1258807778 -0.7594476938 0.6382735968
-0.31381455 0.13388219 1.1340002 0.4241712689 -0.6721770763 0.6068415642
-0.27540722 0.096509963 1.0619167 0.3113289177 -0.6818047762 0.6619792581
-0.2368425 -0.19256812 1.0521111 0.02997041307 0.5519411564 0.8333443403
