# .PCD v0.7 - Point Cloud Data file format
VERSION 0.7
FIELDS x y z normal_x normal_y normal_z
SIZE 4 4 4 4 4 4
TYPE F F F F F F
COUNT 1 1 1 1 1 1
WIDTH 206
HEIGHT 1
VIEWPOINT 0 0 0 1 0 0 0
POINTS 206
DATA ascii
-0.1636052 -0.027409464 1.1737275 0.4609649777 -0.5637157559 -0.6853727698
0.49825087 -0.49421644 2.3010001 0.06379516423 0.8184968829 0.5709580183
-0.47530937 -0.48343432 2.3170002 0.06784819067 0.8397461176 0.538723588
-0.18160325 -0.11541142 1.9360001 -0.981752336 0.09477845579 -0.1648619175
-0.37033206 0.29795444 1.376 -0.2565861046 0.8780348897 -0.4040029049
-0.039786641 0.20663384 1.4640001 -0.7809807658 0.5774713159 -0.2378988415
-0.10962629 0.01351557 1.7130001 -0.9813852906 0.1087742075 -0.1582751721
-0.38324323 0.11696173 1.1747143 -0.3220613897 0.5717018843 -0.7546080947
-0.16482024 0.22697806 1.2414446 0.2791906893 0.746437788 -0.6040555835
-0.1246997 0.027845563 1.381 -0.3251597285 0.6457042098 -0.6908959746
-0.36013728 -0.090835817 1.2190001 -0.587638855 0.1403208226 -0.7968630195
-0.22846109 0.11871995 1.138 0.1787656397 -0.1669742465 -0.969619751
-0.12517309 0.29489225 1.3730001 0.5065155625 0.719576478 -0.475028038
-0.31450418 0.23823416 1.25 -0.232827425 0.7179329395 -0.6560211182
-0.1076307 0.091997109 1.2443334 0.7842857838 0.4837483764 -0.3884370029
-0.30489385 0.004847629 1.1411541 -0.06901354343 -0.3834238648 -0.9209903479
-0.24531706 -0.13076974 1.1563333 0.1731614023 -0.4551724494 -0.8734031916
-0.24671678 0.30145586 1.3379999 0.066707775 0.8935832381 -0.4439133406
-0.092142053 0.14958125 1.365 0.7860008478 0.3214715123 -0.5280707479
-0.11756822 -0.064177915 1.29575 0.07546167821 0.6805773377 -0.7287797928
-0.085990481 0.11165928 1.4640001 -0.8813619018 0.1351618022 -0.4526946247
-0.24496245 0.19710948 1.1941429 0.09277064353 0.7097020745 -0.6983671188
-0.14820664 0.15643679 1.174 0.8381499648 0.1673922092 -0.5191189051
-0.14775018 0.062548704 1.1570001 0.344789505 0.1267785579 -0.9300792217
-0.10758717 0.22687621 1.3155714 0.9320126772 0.1620904803 -0.3241590261
-0.38333565 -0.0010388499 1.1850001 -0.6154217124 -0.4438005686 -0.6513809562
-0.17583477 -0.097566865 1.223 0.3757476509 -0.6539353728 -0.656644702
-0.1413625 0.0043833335 1.25 0.01309435908 0.6886054873 -0.7250179648
-0.26540542 -0.055027355 1.1879997 -0.01592358015 -0.4221395552 -0.906390965
-0.32944694 0.17884263 1.1930001 -0.2260349989 0.7032945752 -0.6740066409
-0.22547312 0.035077151 1.1430801 0.07456284016 0.09900251776 -0.992289722
-0.30841863 0.088357776 1.141 -0.1963459104 0.3654486537 -0.9098876715
-0.37096149 0.26366803 1.302 -0.3396322727 0.7721002698 -0.5371323228
-0.17517379 0.2745541 1.306 0.1872350574 0.842314899 -0.5054193139
-0.084565021 0.22182998 1.3980001 0.9714412689 0.169773221 -0.1657676697
-0.068701908 0.076526687 1.3944001 -0.2959902883 0.7437109351 -0.5994028449
-0.23488483 0.25405037 1.2654544 0.09629817307 0.8095823526 -0.5790535808
-0.084283613 0.095829308 1.317 0.7158118486 0.6630220413 -0.2191236913
-0.11810804 0.17228603 1.2360001 0.6658470035 0.529809773 -0.5253087878
-0.31216115 -0.10412204 1.1689999 -0.5981033444 -0.2298726588 -0.7677440643
-0.13151534 0.1463801 1.3045001 0.9258801937 -0.001278694719 -0.3778150678
-0.30461171 0.28368619 1.3055714 -0.15290609 0.7661269307 -0.6242349148
-0.39230832 -0.020820834 1.25 -0.1103497297 0.4134348035 -0.9038222432
-0.10432158 0.038988873 1.202 0.8737688065 0.1811958104 -0.4513270855
-0.057482153 0.15393829 1.4210002 0.3830877841 0.4879373014 -0.7843219638
-0.1026752 0.18866567 1.4640001 0.4928325117 0.7657811046 -0.4131530225
-0.37213975 0.21203411 1.2340001 -0.1390548348 0.7572738528 -0.6381223202
-0.33472782 -0.042305302 1.177 -0.1638206244 -0.4022630453 -0.9007481337
-0.10790042 -0.011296433 1.3330001 -0.2037220448 0.5835991502 -0.7860720754
-0.30394909 0.30753905 1.365 -0.1320616901 0.9357883334 -0.3268942833
-0.18466544 0.31095278 1.3590001 0.1209191456 0.8513746858 -0.510430932
-0.28492317 0.15453987 1.1553156 -0.1349191815 0.6932790279 -0.707927227
-0.24445324 -0.10292768 1.223 0.07296152413 -0.4646539986 -0.8824813366
-0.19481434 -0.084901653 1.1645004 0.5532627702 0.3190212846 -0.7694970369
-0.35501221 0.05451902 1.1636668 -0.3963582814 0.03422924504 -0.9174575806
-0.12868752 -0.05509777 1.2165 0.2356495559 0.2456367016 -0.9402828813
-0.20490734 0.16617212 1.1628667 0.04236122221 0.7110961676 -0.7018174529
-0.22519876 -0.017202957 1.1638572 -0.07292065024 -0.6873010993 -0.7227030993
-0.12881371 0.10576966 1.1946 0.9668548703 0.05597081035 -0.2491162121
-0.17470424 0.11402766 1.1481429 0.3323377371 0.1720687002 -0.9273316264
-0.17516945 0.015014673 1.1418003 0.1762913615 -0.1663330197 -0.9701828361
-0.33527929 0.13468225 1.1550951 -0.4771926403 0.2123963982 -0.852745533
-0.18464729 0.19497038 1.2028419 0.03384094685 0.7170689106 -0.696180284
-0.25697029 0.077071279 1.13 -0.0643728599 0.07717577368 -0.9949371815
-0.29501042 -0.10392446 1.2182307 0.002886385191 -0.5024523735 -0.8646000624
-0.4013564 0.047708198 1.1830001 -0.3861544728 0.3808305264 -0.8401504755
-0.29497004 0.208956 1.2134286 -0.1645431519 0.6732940674 -0.7208333015
-0.34317118 0.28788888 1.3360001 -0.2282262444 0.8804138303 -0.4156732857
-0.26187611 -0.098449662 1.123 -0.02265664004 -0.6232410669 -0.7817015052
-0.10097535 0.17540434 1.4150001 0.916852355 0.3987570703 -0.01935455389
-0.12795438 0.017944992 1.1650001 0.6879147887 -0.3568599522 -0.6320001483
-0.12377689 0.20620547 1.2748749 0.7920081019 0.4009470046 -0.4603962004
-0.21577939 0.22223341 1.2270001 0.08155235648 0.7771388888 -0.6240227222
-0.3515442 0.0090656104 1.149 -0.2054460198 -0.2316800654 -0.9508503079
-0.14329486 0.24812278 1.2830001 0.5489099026 0.6824877262 -0.4826058447
-0.19544567 0.074556582 1.1340003 0.1489362866 -0.2016051859 -0.9680771232
-0.091399513 0.1946691 1.3540001 0.9121385217 0.1175300032 -0.3926703036
-0.37649596 0.15360747 1.2023635 -0.5844500065 0.284016788 -0.7601004243
-0.12416001 0.26472253 1.3361251 0.5677288175 0.6243164539 -0.5365751982
-0.35811657 -0.047134858 1.2360001 -0.08178517967 0.4863417745 -0.8699326515
-0.22562069 0.2792674 1.302 0.01984589547 0.8197058439 -0.5724408031
-0.22246644 -0.070307791 1.197 -0.3957858682 -0.4178523719 -0.8177731633
-0.28418538 0.045000575 1.1445388 -0.1102110818 -0.0759549588 -0.9910017252
-0.16243581 -0.026716417 1.2190001 0.1327173859 0.5229181647 -0.8419873118
-0.26501015 0.23306115 1.2338462 0.01645053737 0.7608495355 -0.6487197876
-0.16780713 -0.064516529 1.1952858 0.8591587543 -0.1107963249 -0.4995702505
-0.27540612 -0.017018823 1.1633159 0.06900715828 -0.6744540334 -0.7350848317
-0.35681033 0.23824294 1.2640001 -0.2710364461 0.7574719191 -0.5939490795
-0.10863274 0.11239364 1.2863334 0.4795924425 0.8110311627 -0.3349918723
-0.27397907 0.11367419 1.1428462 -0.05390912294 -0.1377159357 -0.9890035987
-0.27423406 0.26529181 1.2754999 -0.01253581233 0.8128495812 -0.5823387504
-0.071309321 0.11412321 1.4128572 -0.9539808035 0.2118885368 -0.2121882588
-0.096502587 0.23589522 1.3590001 0.931826055 0.04068236426 -0.3606177568
-0.32139477 -0.075870238 1.202 0.1451350302 -0.4559063613 -0.8781145811
-0.089354247 0.025019189 1.3590001 -0.222427249 0.6731435061 -0.705268681
-0.35524604 0.095288835 1.15325 -0.3216383755 0.4250010848 -0.8461222053
-0.18452781 0.25178045 1.268 0.08537323028 0.8071170449 -0.5841861367
-0.10747855 0.18594685 1.3120002 0.8523362279 0.1532122195 -0.500048995
-0.1453785 0.19529001 1.2157058 0.7834907174 0.4240456522 -0.4542329609
-0.24574296 0.16660422 1.1623334 -0.01782982424 0.7006153464 -0.7133163214
-0.33427417 0.26364097 1.2857778 -0.1610463709 0.7868862748 -0.595713079
-0.065053046 0.17347743 1.455 -0.5691937208 0.7382692695 -0.3619074523
-0.25639519 0.0069835265 1.138 -0.03255900368 -0.2980254889 -0.9540024996
-0.33201849 0.21167672 1.2256669 -0.1813191622 0.7262246013 -0.6631147861
-0.10413221 0.12831537 1.3346667 0.7558128834 0.4085133672 -0.5117262602
-0.1583523 0.29207203 1.3380001 0.2240096033 0.8059725165 -0.5479306579
-0.13895956 0.10345894 1.1570001 0.7249572277 0.2161730081 -0.6539925933
-0.074790627 0.11547673 1.365 0.800774157 0.378243953 -0.4644267857
-0.067615412 0.19502163 1.4872859 -0.4254035056 0.7090697289 -0.5623628497
-0.12801051 0.14277288 1.2028 0.8005828261 0.4384898543 -0.4084039032
-0.10311704 0.056744881 1.3920001 -0.30564484 0.6274861097 -0.716130197
-0.084443748 0.087419741 1.273 0.6770685315 0.6253992319 -0.3878841102
-0.28096202 -0.1207021 1.1570001 -0.4479383528 -0.5159303546 -0.7301828861
-0.28514153 0.18387388 1.1880771 -0.08581207693 0.7586231828 -0.6458538175
-0.32481325 0.035198763 1.1470802 -0.2400826216 0.09698592871 -0.965895474
-0.22403042 -0.098936796 1.1476668 0.3900251091 -0.2664577365 -0.8814083338
-0.38612872 0.081999898 1.184 -0.6296108365 -0.02974582277 -0.7763410211
-0.19791627 0.29221755 1.3280001 0.1266399175 0.8578241467 -0.4980964363
-0.19590154 -0.051149618 1.177 -0.09530314803 -0.386677444 -0.9172773957
-0.26515692 0.28346679 1.3051251 0.09368856251 0.8477336764 -0.522082448
-0.19653638 0.14066818 1.138 0.1594728976 0.3967479467 -0.9039687514
-0.19308233 -0.11571123 1.97 -0.7084648013 0.6776134372 0.1972755939
-0.2838971 0.30186233 1.3363333 0.006290229037 0.9190374613 -0.3941199481
-0.11324963 0.075535111 1.2135454 0.8784430623 0.3747269213 -0.2965088785
-0.12258466 0.066469043 1.181 0.8115156889 0.3186667264 -0.4897895455
-0.12744629 -0.023761172 1.2320002 0.08332768083 0.44580549 -0.8912429214
-0.12525377 -0.035739865 1.3151819 0.04162453488 0.6084984541 -0.792462647
-0.1433125 -0.086130448 1.223 0.3560770154 -0.326060921 -0.8757244945
-0.35487857 0.15440318 1.1752857 -0.4819402099 0.393584311 -0.7828314304
-0.29507285 -0.038307704 1.1810001 0.1309715509 -0.5284062028 -0.8388285637
-0.36414102 0.18844125 1.2110001 -0.1112702936 0.6745872498 -0.7297609448
-0.13015607 0.11939937 1.2270001 0.9778162241 0.1216081604 -0.170548901
-0.2543999 0.14066818 1.138 -0.1270998567 0.4930827618 -0.860648036
-0.19395928 -0.011975558 1.149 -0.05906857923 -0.5387772918 -0.840374887
-0.07698711 0.14135198 1.3940001 0.8068233728 0.5300630927 -0.2609005868
-0.38487664 0.026456183 1.1628948 -0.4773800075 0.06680565327 -0.8761537075
0.4997184 -0.47980931 2.2710001 0.06379516423 0.8184968829 0.5709580183
-0.39333227 -0.050927319 1.2360001 -0.1597698629 0.386036694 -0.9085423946
-0.26533958 -0.084962226 1.2045453 0.05268097669 -0.441119194 -0.8959009647
-0.30695158 0.12556806 1.1409999 -0.3407154083 0.03526686504 -0.9395048022
-0.31459743 -0.017471466 1.1624287 0.01213551778 -0.6495712399 -0.760203898
-0.18527628 0.04540047 1.1451484 0.2102971673 0.1187778711 -0.970395267
-0.17492463 0.17396857 1.1751335 0.07738031447 0.7534047365 -0.652988255
-0.16496381 0.083274156 1.1380002 0.3000446558 -0.07990132272 -0.9505729675
-0.12320352 0.0051539238 1.3556668 -0.3121393621 0.6315729618 -0.7097073793
-0.22546962 0.084669001 1.1341541 0.1675774455 0.2471346855 -0.9543805718
-0.22517271 0.31095278 1.3590001 -0.002144653117 0.8941690922 -0.4477242827
-0.31257114 0.16089725 1.169 -0.2320113927 0.6683363914 -0.7067511678
-0.21454856 0.1894282 1.1938 0.07004588842 0.7806222439 -0.621065557
-0.23614937 -0.036763653 1.1857275 -0.05891739577 -0.5804406404 -0.8121683598
-0.33506203 0.30634239 1.365 -0.2276590466 0.8875516653 -0.4005288482
-0.1445076 0.26715353 1.3127145 0.4497655034 0.7490653396 -0.4864279032
-0.17082463 0.14858711 1.153 0.4538354874 0.2838898301 -0.8446537256
-0.13693738 0.20667796 1.243 0.7979874015 0.3996779323 -0.4510805309
-0.08560738 0.09945257 1.4360001 -0.785579741 0.4934566915 -0.3733161688
-0.28521144 0.24650879 1.2525001 -0.06888322532 0.7736493945 -0.6298584938
-0.1174593 0.016621599 1.2640001 -0.007533140481 0.7066264749 -0.7075466514
-0.15436785 0.30514574 1.3650001 0.2978429496 0.8340767622 -0.4643334448
-0.20546874 0.23943958 1.25 0.08415147662 0.7762158513 -0.6248259544
-0.10514704 0.15749143 1.3268001 0.8233578205 -0.2863073945 -0.4900102019
-0.36277974 -0.013037128 1.1665 -0.4925839901 -0.548701942 -0.6754903197
-0.25432035 0.046387833 1.1409999 -0.009773139842 -0.125552699 -0.9920387864
-0.077202775 0.054283198 1.376 -0.4810571671 0.5734624267 -0.663117528
-0.34360951 -0.056034781 1.2060001 -0.6993718743 -0.3224805892 -0.6378755569
-0.047517378 0.19217205 1.439 -0.7776275277 0.5471532345 -0.3097076118
-0.28610221 0.07206025 1.1260002 -0.09413209558 -0.1227162704 -0.9879675508
-0.20572563 0.26541552 1.2846667 0.06541398168 0.813637495 -0.5776807666
-0.15704796 -0.0037191121 1.1569999 0.4670020938 -0.4899747074 -0.7360936403
-0.22569233 0.0050134482 1.1442003 0.06350372732 -0.3716261983 -0.9262079597
-0.30371866 0.2620886 1.2748749 -0.1576425582 0.8155543208 -0.5567943454
-0.33484751 0.075303636 1.141348 -0.287321955 -0.1627666503 -0.9439031482
-0.29462701 -0.067117229 1.1935713 0.06261758506 -0.5231100917 -0.8499616981
-0.092707492 0.082544006 1.41 -0.2738804519 0.7135118246 -0.6448956728
-0.18551579 0.21470293 1.2248821 0.1211208999 0.772158742 -0.6237792969
-0.14454272 0.035005983 1.1478573 0.3128879964 0.1152894869 -0.9427669048
-0.17609552 -0.091688991 1.1858001 0.8483669758 -0.1560453773 -0.5058886409
-0.26806274 0.31095278 1.3590001 0.006743272766 0.9333288074 -0.3589594662
-0.31126577 0.058861151 1.138 -0.3035133183 -0.3624479175 -0.8811987042
-0.14234951 0.1652728 1.2127779 0.8477787375 0.3930206299 -0.3560982347
-0.095468998 0.066803753 1.2340002 0.7680720091 0.4797652364 -0.4241352379
-0.23418786 0.23617359 1.2435454 0.0879265368 0.7696561217 -0.6323751807
-0.1511645 0.12854125 1.1730001 0.5939893126 0.4068674445 -0.6939997077
-0.25504887 0.21512237 1.2147499 0.06346781552 0.7740398049 -0.6299477816
-0.35476246 0.12670165 1.1750001 -0.5164865851 0.2979463041 -0.8027886748
-0.31793341 -0.077511363 1.1736668 0.44464463 0.7226420045 -0.5292255878
-0.22462569 0.15283336 1.149 0.08118121326 0.6796005964 -0.7290765643
-0.087886125 0.17198767 1.439 0.3800154626 0.8261299133 -0.4160500169
-0.19847295 -0.1119591 1.161 0.544623673 -0.2356566638 -0.8048918843
-0.083806261 0.19737536 1.3855001 0.9921832085 -0.08807089925 -0.08840795606
-0.3725726 -0.066353865 1.219 -0.2044710517 0.2748731971 -0.9394872785
-0.12785888 0.24399462 1.3051251 0.7014771104 0.5214034319 -0.485868603
-0.12507282 0.045771535 1.1635 0.7150675058 0.2098418176 -0.6668169498
-0.20531525 0.10516555 1.1424403 0.02719738334 0.07132352889 -0.9970823526
-0.45790666 -0.47000992 2.3010001 0.06784819067 0.8397461176 0.538723588
-0.10735923 0.27295339 1.3556668 0.5932668447 0.6005723476 -0.5360478759
-0.10486056 0.24600723 1.3350002 0.8302251697 0.3668318689 -0.4197148085
-0.31787759 0.29676393 1.3380001 -0.2497315407 0.8876008987 -0.3870385587
-0.093985677 0.19971956 1.4890001 0.1707701087 0.8396115303 -0.5156452656
-0.3933599 0.13385999 1.1960001 -0.4916204214 0.5024529099 -0.7112316489
-0.36810794 0.27929461 1.3330001 -0.2808220088 0.867760241 -0.4100379646
-0.29485458 0.22789125 1.2320001 -0.1626115143 0.7318437696 -0.6617870927
-0.37945378 0.058614809 1.1730001 -0.4175984859 0.3294906914 -0.846786499
-0.32434681 0.10565799 1.153 -0.3715210557 0.1661008 -0.9134454727
-0.24666822 0.098627284 1.141 0.05005687848 0.2972150445 -0.953497529
-0.33506006 -0.092967525 1.1862 -0.7809231281 0.1014553756 -0.6163325906
-0.2239667 0.29332975 1.3260001 0.04296163842 0.8769637346 -0.4786323011
