# .PCD v0.7 - Point Cloud Data file format
VERSION 0.7
FIELDS x y z normal_x normal_y normal_z
SIZE 4 4 4 4 4 4
TYPE F F F F F F
COUNT 1 1 1 1 1 1
WIDTH 206
HEIGHT 1
VIEWPOINT 0 0 0 1 0 0 0
POINTS 206
DATA ascii
-0.14538141 0.12362929 1.0340002 0.6167256236 0.638019383 -0.4610648453
-0.13846029 -0.053303964 1.483 -0.6934962273 0.6991499066 0.1739322543
-0.27437234 -0.20328721 0.94115388 -0.6089174747 -0.3215286136 -0.7251474857
-0.014422218 0.11605383 1.2656 -0.7018415928 0.7030009031 -0.1149265245
-0.068169594 -0.1202436 1.08 -0.1526798308 0.6855354309 -0.7118497491
-0.37252814 0.023938941 1.003 -0.715583384 0.3224283755 -0.61966151
-0.32108882 0.16904676 1.141 -0.3208642006 0.8412965536 -0.4350474775
-0.16338943 -0.036119137 0.927625 0.01565412804 0.2712445259 -0.9623831511
-0.16933255 0.20777351 1.1850001 0.02621312998 0.9196397662 -0.3918871582
-0.063861132 0.027627978 1.1417999 0.5395048261 0.6100786328 -0.5802918077
-0.35152081 -0.13691752 1.0343333 -0.833607614 -0.248796612 -0.4931516647
-0.14354359 -0.16568324 0.97527766 0.6075658202 -0.5512969494 -0.5717826486
-0.24700382 0.068733647 0.95380002 -0.2290253043 0.7277475595 -0.6464757323
-0.29210392 -0.064140432 0.93799996 -0.2217128873 0.1510843784 -0.9633363485
-0.084275447 -0.0048231464 1.0240625 0.8062070012 0.4471643865 -0.3873942792
-0.31275621 0.11165364 1.0427144 -0.3887754083 0.7403669357 -0.548370719
-0.094448097 0.13497435 1.1454706 0.8820105791 0.2192148566 -0.4171356559
-0.22424655 0.16225421 1.095143 -0.07895470411 0.8990517855 -0.4306646585
-0.14567372 0.054758955 0.96410745 0.4039019048 0.6646096706 -0.6286153197
-0.37797734 -0.0662954 0.98212498 -0.6847249269 0.2944438159 -0.6666743159
-0.22478265 -0.12496024 0.96308845 0.001078306115 -0.3735335469 -0.9276160598
-0.13028756 -0.084197693 1.011 0.05833772197 0.6274381876 -0.7764779925
-0.073452681 0.076294251 1.2143334 0.6671549082 0.7162753344 -0.2045825124
-0.085405752 -0.065708674 1.1460669 -0.6213977933 0.6627631783 -0.4178633094
-0.23115596 0.11916179 1.0220001 -0.08664555103 0.7795105577 -0.620367527
-0.11573616 0.065004252 1.0851111 0.8975481391 0.2471961677 -0.3651046157
-0.19548278 -0.18429394 0.91547382 0.3101922274 -0.2022738606 -0.9289058447
-0.30395648 0.013210629 0.95736843 -0.3494495749 0.4834314585 -0.8026076555
-0.092715971 0.17229275 1.2156668 0.8304938078 0.4968302548 -0.2518724501
-0.30487534 -0.13540539 0.9647882 -0.1836032569 -0.2993724346 -0.93630445
-0.23367561 -0.004255475 0.92800003 0.002203357173 -0.1254834831 -0.9920932651
-0.024236327 0.011591286 1.202 0.6206510663 0.285017848 -0.7304499149
-0.14906402 0.16060446 1.097 0.3116918802 0.8463792205 -0.4318453074
-0.098877482 -0.039720014 0.96400005 0.8823308349 -0.03834164515 -0.4690653086
-0.36195374 0.12740771 1.1010001 -0.3147765696 0.7761195898 -0.5464010239
-0.092886992 -0.15242112 1.0237502 0.1542028338 0.9580646157 -0.2415236533
-0.25428757 0.18468699 1.153 -0.1215360388 0.9285688996 -0.3506976068
-0.31598222 -0.19099762 1.0040001 -0.5672940612 -0.231642127 -0.7902653813
-0.15491436 -0.10505409 0.94454348 0.3906251192 -0.3025360107 -0.8694158792
-0.30474487 0.073683716 0.98714298 -0.3632121682 0.7597698569 -0.5392834544
-0.21595506 -0.18518972 0.98633337 -0.07439681143 -0.2223337293 -0.972127974
-0.28762555 0.14811283 1.09 -0.2543530166 0.8401725292 -0.4789725542
-0.11826584 0.049277432 1.0220001 0.92223382 0.3201498985 -0.2167691141
-0.2302337 -0.073219195 0.92800003 -0.0820050016 -0.2445386201 -0.9661656618
-0.18834218 0.098901153 0.98100007 -0.09697857499 0.8284726739 -0.5515688062
-0.36387628 0.07874877 1.0325 -0.3528299034 0.7321488261 -0.5826398134
-0.073985405 0.019919619 1.082 0.7576264143 0.6108193398 -0.2300041914
-0.037893526 -0.026195286 1.1543334 -0.3700222671 0.6868786812 -0.6255247593
-0.3564705 -0.014468565 0.96339995 -0.603308022 -0.01467604935 -0.7973732352
-0.1158918 0.18418078 1.1650002 0.3366972804 0.745585084 -0.5750980377
-0.1949365 0.034978803 0.94355571 -0.009222146124 0.4818276763 -0.8762174845
-0.085917719 0.078842141 1.153 0.9421702623 0.04230926931 -0.3324531019
-0.18764392 0.1839229 1.1324999 -0.03754835948 0.9062307477 -0.4211127758
-0.051739112 0.077608675 1.2830001 -0.7397769094 0.6218234897 0.2570323646
-0.10989016 0.11849026 1.09 0.8931356072 0.2140247375 -0.3956035674
-0.19450429 0.14252913 1.0540001 -0.1128222048 0.8605196476 -0.496766597
-0.10507815 -0.04780025 1.0463333 -0.8905496597 0.412376523 -0.1920075715
-0.34157386 -0.083108 0.94800007 -0.4918189347 -0.1425877959 -0.8589428663
-0.076945558 0.12517029 1.1958001 0.8992874026 0.3748514056 -0.2253188789
-0.12329102 0.0078729056 0.96216661 0.6336252689 0.5153363347 -0.5770160556
-0.26454917 -0.16481151 0.97518528 -0.07561524957 -0.3801420331 -0.9218320847
-0.11537061 -0.12447821 0.98545432 0.1448909491 0.3569862545 -0.9228041172
-0.10105979 -0.10170969 1.1120001 -0.3940511942 0.7319093943 -0.5559067726
-0.026375234 0.085326627 1.2265294 0.2537472546 0.5276401043 -0.8106838465
-0.059252147 -0.078679077 1.108 -0.4068045914 0.6428959966 -0.6489951611
-0.14322788 0.087252721 1.0034546 0.759847641 0.4935675263 -0.4231107235
-0.16677706 -0.14887904 0.92800003 0.5802218318 0.08044623584 -0.8104757667
-0.27190343 0.10152239 1.0070001 -0.2568673491 0.8098961711 -0.5273399353
-0.26485676 -0.10524499 0.95168591 0.08794198185 -0.5346614122 -0.8404780626
-0.26397181 0.13395137 1.05375 -0.2085550129 0.8442079425 -0.4937790036
-0.2741845 -0.021274166 0.93733341 -0.210311085 -0.3575754762 -0.9098950624
-0.34273532 0.043652982 0.97627276 -0.7092697024 0.228856951 -0.6667540669
-0.31514236 -0.029179851 0.95100003 -0.260578841 -0.3335102499 -0.9060185552
-0.18527693 -0.077045858 0.93000025 -0.08765688539 -0.3943076432 -0.9147883654
-0.11834981 0.095567971 1.0537778 0.8108211756 0.449716121 -0.3745990098
-0.098687597 0.043359756 1.1190001 0.8697506189 0.08221340179 -0.486595124
-0.15682009 0.015447876 0.93507683 0.4610778391 -0.08001565188 -0.8837447166
-0.23873386 -0.18308307 0.92000002 -0.2837353647 -0.194387421 -0.9389929771
-0.077650748 0.046590447 1.1810001 0.4651319981 0.8002427816 -0.3785018921
-0.23426725 0.20094925 1.1876668 -0.1051739827 0.9484609962 -0.2989317179
-0.13395317 -0.064615279 0.94090027 0.6390054226 -0.3326931298 -0.6935324669
-0.37295592 -0.027203843 1.001 -0.8186996579 -0.01778588258 -0.5739464164
-0.26137465 0.021192539 0.94800007 -0.1844965518 0.383030355 -0.9051235914
-0.35336855 0.10776336 1.06425 -0.2585444152 0.8101422787 -0.5261409283
-0.10411298 -0.13593398 1.0635333 0.04090932384 0.8208265901 -0.5697105527
-0.19197878 -0.15131161 0.96640003 -0.3513088226 -0.3240765929 -0.8783828616
-0.23032488 0.10092888 0.98400003 -0.1305004954 0.8657365441 -0.4831872284
-0.18429156 0.12300962 1.018 -0.1062339768 0.8372216821 -0.5364458561
-0.20487422 -0.034900308 0.93281597 -0.09226977825 0.3286377788 -0.9399380088
-0.03567858 0.051419131 1.197 0.5974823236 0.4414682388 -0.6694181561
-0.17895505 0.072662294 0.94725007 0.4004139304 0.222413823 -0.8889323473
-0.12480178 -0.024775809 0.93479407 0.5176447034 0.2361120284 -0.8223716021
-0.27565908 0.16834892 1.123 -0.1463936418 0.8591951728 -0.4902576208
-0.14804095 0.18305063 1.141 0.3621847928 0.8379818201 -0.4081772268
-0.28516388 0.056756962 0.95421058 -0.2485748529 0.5924623609 -0.7662889957
-0.28287578 -0.16446267 0.93800002 -0.64496696 0.2471002936 -0.7231590748
-0.32440227 0.14583859 1.1046 -0.3010379374 0.8002768159 -0.5185876489
-0.10205948 0.098777831 1.123 0.8781183958 0.06158497185 -0.474463284
-0.096269213 0.032705996 1.0525556 0.5430051684 0.7796100974 -0.3120152652
-0.10848925 0.011373873 0.99800003 0.8485630155 0.4484056532 -0.2808437347
-0.11722831 0.15058196 1.1190001 0.6466233134 0.6168219447 -0.4487861395
-0.05349274 -0.0037962589 1.1810001 -0.2207958847 0.6261154413 -0.747815907
-0.21618029 0.19339705 1.155 -0.05641878396 0.9337660074 -0.3534091413
-0.13771249 0.14285019 1.0650001 0.6573472023 0.6127869487 -0.4386192262
-0.18413614 0.16174237 1.0845555 -0.04469336197 0.8929932117 -0.4478454888
-0.25493935 -0.19541271 0.99407697 -0.1784968525 -0.4193745255 -0.8900920749
-0.10722999 -0.16066207 0.98757142 0.6765083671 -0.390686363 -0.6242600083
-0.30458876 -0.10249347 0.94782615 -0.08618316054 -0.5491315126 -0.8312803507
-0.32542178 0.084610187 1.0158422 -0.3491713405 0.7569574118 -0.5523538589
-0.06136667 0.09095417 1.25 -0.5344205499 0.7335982323 0.4197955728
-0.094846576 0.15618913 1.1760001 0.865383327 0.4347165227 -0.2492654026
-0.18869634 -0.11727521 0.95100003 -0.2769419253 -0.4034293294 -0.8720939755
-0.047550399 -0.050522301 1.13 -0.4172662199 0.6520009637 -0.6330747604
-0.34202623 -0.17012243 1.016 -0.6200531721 0.1131726503 -0.7763543129
-0.21102156 0.081550166 0.95900005 -0.08185032755 0.7943482995 -0.6019229889
-0.089574292 -0.01826272 0.99200004 0.8630710244 0.3140066862 -0.3956112266
-0.24239969 -0.036821358 0.93800002 -0.202990219 0.140735954 -0.9690141082
-0.19850539 -0.00081354665 0.92800003 0.08067116886 -0.346794486 -0.9344654679
-0.34286365 -0.04647154 0.96635717 -0.4897904396 0.2390455008 -0.8384286165
-0.3333976 -0.11564456 0.9639231 -0.3338486254 -0.5597063899 -0.7584680915
-0.075317942 0.11094129 1.161 0.8587566018 0.1873592585 -0.4768999815
-0.14551616 -0.13590145 0.95653343 0.829200089 0.2003773451 -0.5218008161
-0.30014348 -0.16512191 0.98100007 -0.1224377304 -0.6644544601 -0.7372308373
-0.099106468 -0.096285701 1.0040001 0.07653736323 0.6520355344 -0.7543153763
-0.23503685 0.17615598 1.1241251 -0.09904351085 0.8794279099 -0.4656145573
-0.35042995 0.14905612 1.126 -0.3479549587 0.825581491 -0.4442324936
-0.32539502 0.12403063 1.0734 -0.359596163 0.7854836583 -0.5036924481
-0.22662348 0.048238695 0.93662506 0.06901783496 -0.2466787845 -0.9666364789
-0.25546548 0.15358594 1.0841 -0.1340626478 0.8724196553 -0.4700118899
-0.068193272 -0.04173021 1.161 -0.627548635 0.6121941805 -0.4810415506
-0.22587228 0.14579979 1.0638001 -0.04422067478 0.8715007305 -0.4883963168
-0.15855911 0.085431255 0.97450006 0.7009154558 0.3674508631 -0.6113079786
-0.2018753 0.20499885 1.187 -0.08178994805 0.9459055066 -0.3139637113
-0.16648427 -0.18148577 0.93000013 0.5343205333 -0.06876476109 -0.8424802423
-0.36441275 0.05543929 1.0036843 -0.713124454 0.4091590941 -0.5692471862
-0.26572776 -0.13427739 0.9653337 0.07489154488 -0.3234684169 -0.9432706237
-0.36387148 -0.09344276 0.97250003 -0.5864474773 -0.2122970521 -0.7816708088
-0.048166696 0.042017758 1.169 0.7167173028 0.649494648 -0.2539153397
-0.13863143 -0.10492159 0.97528571 0.9230380058 -0.02305638976 -0.3840172887
-0.31392261 0.043214846 0.95712507 -0.3900386095 0.266171366 -0.8814889193
-0.22498791 -0.15511106 0.9721387 0.0716316551 -0.2850748003 -0.9558249116
-0.26235828 0.081451103 0.97800004 -0.2410308272 0.7706927657 -0.589861691
-0.2148221 -0.094009474 0.94513631 -0.06029870734 -0.6255194545 -0.7778750062
-0.35204023 0.012517748 0.97800004 -0.5308917165 0.4912063479 -0.6905579567
-0.10471494 -0.072546668 1.0236156 0.1682820767 0.6515540481 -0.7397016287
-0.09904106 0.16534407 1.1458001 0.7086758614 0.5474837422 -0.4450168908
-0.12742603 0.062957495 0.98712504 0.7677028179 0.4785593152 -0.4261611998
-0.071351022 -0.13992214 1.057 0.04271384329 0.7837759256 -0.6195731163
-0.18475817 0.19562414 1.1618001 -0.026638126 0.933793962 -0.356818229
-0.22179666 -0.2080856 0.92000002 -0.0134127466 -0.4446887672 -0.8955847025
-0.12518199 0.033114657 0.98537499 0.9028530121 0.2128132284 -0.3735865951
-0.1658573 0.11134997 0.99750012 0.2028302699 0.8145974874 -0.5434067249
-0.29639092 0.12795563 1.0615001 -0.2958524227 0.8208172321 -0.4886005223
-0.28473487 0.11579562 1.034091 -0.3029788733 0.780072093 -0.5474406481
-0.0349264 0.11241935 1.245 -0.06631736457 0.8170226216 -0.5727792382
-0.2653352 -0.075342648 0.93413883 -0.08643721789 -0.1996535212 -0.9760466814
-0.33402947 0.065343402 0.99380004 -0.4103578329 0.7711238265 -0.4868002236
-0.12360649 0.078398898 1.0232 0.8788066506 0.370308727 -0.3009490669
-0.16459136 0.14261439 1.0536001 0.1603503227 0.8516287804 -0.4990151823
-0.33370191 0.0027592459 0.95742863 -0.3879090846 0.5883376002 -0.7094966173
-0.16453443 0.042370431 0.94585711 0.04163109139 0.6074796319 -0.7932435274
-0.16581263 0.17559478 1.1152942 0.1072402 0.877671659 -0.4671102166
-0.10323481 -0.11911708 1.087 -0.2008460462 0.7883936763 -0.5814604163
-0.20457444 0.10801059 1.0040001 -0.1155103445 0.862559855 -0.4925929606
-0.14796561 -0.16354367 0.9441765 0.8047232628 -0.08721980453 -0.5872079134
-0.085880019 0.06811174 1.126 0.842022717 0.1059565172 -0.5289337635
-0.17470214 -0.0111249 0.94000006 0.04365600646 -0.00826114323 -0.9990124702
-0.10424922 0.024676569 1.0246471 0.8054499626 0.5224143267 -0.2798814476
-0.12643325 0.14247245 1.0933636 0.7153999209 0.561172545 -0.4162791967
-0.11916004 -0.071834065 0.96400005 0.7631483674 -0.3619376719 -0.5353556871
-0.26067331 0.047694173 0.93800002 -0.1788184643 -0.2486874759 -0.9519340992
-0.30014437 -0.0090454463 0.93800002 -0.2819444537 0.1060317308 -0.9535536766
-0.080083497 0.0052161664 1.0500001 0.7768589854 0.5052983761 -0.3757174611
-0.32496929 -0.057146199 0.94777787 -0.3565318286 0.3644419909 -0.8602715135
-0.15755688 -0.071863286 0.92800003 0.2750613093 -0.2757046819 -0.9210473299
-0.066527605 0.017611356 1.1160001 0.4496768415 0.8727369905 -0.1900550127
-0.29399496 -0.18510638 0.95253348 -0.8589360118 -0.3750589788 -0.3486540914
-0.3829014 -0.0014625723 1.001 -0.9170003533 0.09598655999 -0.3871652186
-0.082827464 0.073509373 1.1810001 0.9386670589 -0.05117858574 -0.3410056829
-0.08130645 0.049185384 1.1450001 0.6492212415 0.5603188872 -0.5143486857
-0.20570412 0.17344904 1.1150715 -0.04475188255 0.8794320822 -0.4739161134
-0.15495652 0.19671145 1.1634001 0.1865036637 0.8800406456 -0.4367434978
-0.33562076 0.097636826 1.0426363 -0.2877630591 0.7941123843 -0.5353297591
-0.23271467 0.020557834 0.93800002 -0.2034219652 0.5218008757 -0.8284584284
-0.29830509 0.1589011 1.1120001 -0.217592001 0.8371278048 -0.5018672347
-0.11304471 0.084284067 1.1033999 0.8446747661 0.04380629212 -0.5334843397
-0.028900018 -0.0059439754 1.169 -0.0362143591 0.6936909556 -0.7193617821
-0.058079164 0.064654164 1.25 0.07802461833 0.9969105124 -0.009032329544
-0.26464251 -0.17908885 0.92557144 -0.5617644191 -0.2463438958 -0.7897692323
-0.072939344 -0.097926691 1.0963334 -0.350002259 0.6306223869 -0.6926859617
-0.086230576 -0.083765388 1.124125 -0.5511928201 0.6601893902 -0.5102317929
-0.066054903 0.096701063 1.1810001 0.943811059 -0.1505648196 -0.2941953838
-0.10753363 -0.015027616 0.96469235 0.8659678698 0.2486882061 -0.4338823259
-0.32438567 0.023534991 0.9703334 -0.3927601278 -0.126641199 -0.9108794928
-0.27218568 -0.047694173 0.93800002 -0.1542916745 0.3471226692 -0.9250404835
-0.21434252 0.13278413 1.036 -0.05023580417 0.8610944748 -0.5059571862
-0.12456516 -0.14504214 0.97322202 0.4876663983 0.07690409571 -0.8696362376
-0.10262085 0.039322007 1.0940001 0.6426968575 0.7590770721 -0.1036472917
-0.10647786 0.12284762 1.1161819 0.9043863416 0.1720751971 -0.390481025
-0.1310266 0.11894614 1.0600001 0.8133465648 0.439719528 -0.3809384108
-0.24437271 0.10482751 1.005875 -0.1478841156 0.8290613294 -0.5392472148
-0.28225106 -0.18187976 0.98700011 -0.1146291122 -0.4493157864 -0.8859884143
-0.15439415 -0.17707351 0.99500006 0.1310704201 -0.6907567978 -0.7111086845
-0.35862416 -0.032680377 0.98100007 -0.7955572605 -0.1811755598 -0.5781556964
-0.16977702 -0.14134146 0.95400006 -0.4909514189 0.2589977384 -0.8317973614
-0.29518583 0.096343093 1.0144001 -0.3383838236 0.7699706554 -0.5409635901
