# .PCD v0.7 - Point Cloud Data file format
VERSION 0.7
FIELDS x y z normal_x normal_y normal_z
SIZE 4 4 4 4 4 4
TYPE F F F F F F
COUNT 1 1 1 1 1 1
WIDTH 206
HEIGHT 1
VIEWPOINT 0 0 0 1 0 0 0
POINTS 206
DATA ascii
-0.12081694 -0.062167939 1.3380001 0.6501532197 0.187806353 0.7362265587
-0.01462017 -0.49221238 1.853 -0.1036024466 0.6624460816 0.7419108748
-0.24819952 -0.28426674 1.6240001 0.8723806143 0.1726284325 0.4573308229
-0.0909492 -0.37224934 1.1570001 0.1309151053 0.5911310911 0.7958801985
-0.038271062 -0.12841204 1.108 -0.115863353 -0.6848399043 0.7194234133
0.0054353336 -0.099194832 1.5500001 0.9751476645 -0.220263347 -0.02389808372
0.092531294 -0.017076589 1.3590001 -0.4954283834 0.6176047921 0.6108314395
-0.17217031 -0.22238666 1.169 0.9026119709 0.01620733552 0.4301499128
0.0074025732 -0.13325216 1.2666668 0.8313930035 -0.51154989 0.2170306742
-0.015096201 -0.41514549 1.7220001 -0.102698572 0.6649128795 0.7398269176
-0.03567595 0.061840504 1.3565001 -0.3466658592 -0.8127709627 0.4682159424
-0.19556154 -0.10608894 1.4580001 0.8530937433 0.1200488657 0.5077591538
-0.065599799 -0.026553646 1.2036667 0.5884933472 -0.691511631 0.4189119935
-0.057964906 -0.26341662 1.0761112 -0.2306219339 0.3944865763 0.8894907832
-0.18579058 -0.33773142 1.2230002 0.4914129078 0.4964880049 0.7155508399
-0.14718795 0.04188275 1.365 0.7787243724 -0.133933574 0.6129030585
0.010142595 -0.011267358 1.2855 -0.5908789039 -0.6658857465 0.4554758668
-0.13502821 -0.12358938 1.1545999 0.2576982677 -0.7099996209 0.6553565264
0.0043275189 -0.082268447 1.3470001 0.7185512781 -0.5042417049 0.4789826274
0.011337345 -0.16593517 1.1756667 -0.9369686842 -0.1484939903 0.3162897229
-0.1781413 -0.021177636 1.4210001 0.9458934665 -0.06835281849 0.3171962798
-0.10549399 -0.19502093 1.1054999 0.4734611809 -0.04433359951 0.8796982765
-0.078301407 0.0052505322 1.302 0.7554798126 -0.06681825966 0.6517557502
-0.11750314 -0.28696629 1.1326667 0.8055838346 0.3393792808 0.4856505096
-0.0068312371 -0.085413761 1.186143 -0.7652403116 -0.3878200352 0.5138121247
-0.02052715 -0.20820394 1.115 -0.8926580548 0.1702568233 0.4173418581
-0.15560448 -0.10284036 1.3932002 0.712323308 0.1853421926 0.6769370437
-0.075423546 -0.077432983 1.1471334 -0.3243358433 -0.7188593745 0.6148556471
-0.056365281 -0.30847183 1.169 -0.8965309262 0.00123648881 0.4429793656
-0.1110123 -0.075065456 1.2060001 0.2923976481 -0.7651743889 0.5735954642
0.023371935 0.03155211 1.3330001 0.09725500643 -0.8266369104 0.5542678237
-0.01393374 -0.46290982 1.766 -0.1030435115 0.6662503481 0.7385746837
-0.17534661 -0.28646851 1.1846668 0.6623101234 0.3644469678 0.65461725
-0.094907179 0.062661372 1.327143 0.4260005355 -0.5539245605 0.715325892
-0.00396604 -0.042165328 1.2333335 -0.699056685 -0.5224395394 0.4882383347
-0.13805397 -0.36657509 1.1930001 0.8111898899 0.2678075433 0.5198558569
-0.05331799 -0.19612288 1.0670002 0.07003716379 -0.2193750888 0.9731234908
-0.044155803 0.0080643101 1.2541667 -0.4527738094 -0.733317256 0.5071899891
-0.1531712 -0.015157566 1.3649999 0.7711431384 0.005752759986 0.6366358399
-0.094868183 -0.13890257 1.108 0.3503958583 -0.3076068759 0.8846472502
0.013163149 -0.029916249 1.3650001 0.6873335242 -0.4824311435 0.5429851413
-0.15130974 -0.17425562 1.138 0.7932887673 -0.1441852003 0.5915264487
-0.026015522 0.025447002 1.3045001 -0.3994174898 -0.821054697 0.4078417718
-0.13788438 -0.2366709 1.1243335 0.6172106862 0.3345375657 0.7121345401
-0.077498212 -0.32127422 1.1190001 -0.1526562721 0.6909652352 0.7065855265
0.021603696 -0.089825898 1.2970001 0.8147682548 -0.4101608396 0.4097813666
0.061192211 -0.0023091401 1.317 -0.3209069967 0.593147099 0.7383733392
0.021450961 -0.13594499 1.2167778 0.8338890672 -0.4878943563 0.2580467761
-0.1404008 -0.3207697 1.169 0.7506585717 0.1853926331 0.6341460943
-0.11748698 0.016213451 1.3344287 0.5963799357 -0.03762289137 0.8018200994
-0.10224239 -0.25348982 1.0961001 0.6713616848 0.1983247697 0.7141013741
-0.18285124 -0.074394055 1.4244287 0.8730503917 0.1065122411 0.4758551419
-0.091091365 -0.042394724 1.307 0.6654698253 0.02218357474 0.7460950613
-0.024918372 -0.095175602 1.1448336 -0.3832837343 -0.6935859323 0.6099444032
-0.16302989 -0.055420235 1.3843335 0.8017426133 0.1635507196 0.5748564601
-0.17514047 -0.13135535 1.427 0.8355743289 0.141826719 0.5307548046
-0.02632737 -0.1660195 1.0843477 -0.1611618847 -0.5538890362 0.8168438077
-0.102833 -0.10180467 1.1730001 0.04939843342 -0.6779522896 0.7334442735
-0.028039599 -0.27848485 1.103 -0.3165208995 0.3914420903 0.8640530109
-0.0345475 -0.054436792 1.1942003 -0.2262496054 -0.6619758606 0.7145621181
-0.055822123 0.055166125 1.3148574 -0.3466148973 -0.7571358085 0.5537179112
-0.10914149 -0.33512601 1.1456667 0.6181151867 0.4166138768 0.6666082144
-0.1553508 -0.26532853 1.1556665 0.5250991583 0.379175663 0.7619033456
-0.069005504 -0.1094251 1.1245 -0.4029441774 -0.5812647939 0.7069421411
-0.077782243 -0.062224045 1.1830001 0.6603353024 -0.6931638122 0.2889312506
-0.075513206 -0.16514905 1.0867391 0.2351932675 -0.480604738 0.8448095918
-0.092213936 -0.21778856 1.077 0.6256485581 -0.03158242255 0.7794654369
-0.059430111 -0.34147131 1.149 -0.7240952253 0.2067874074 0.6579704285
-0.00119665 0.049062651 1.365 -0.4218123555 -0.755618751 0.5011134148
-0.034587789 -0.23511608 1.0840499 -0.7341390848 0.3520542085 0.5806010962
-0.084822237 -0.2917808 1.097 0.3977781534 0.4496725798 0.7997294068
-0.12724377 -0.087355442 1.3650001 0.6647425294 0.3859720528 0.6396428347
-0.13144931 -0.16756238 1.1073999 0.5661805868 -0.353795588 0.7444919348
-0.12493552 -0.02549104 1.3356925 0.664915204 -0.0007484037196 0.7469184995
-0.035449881 -0.024706276 1.2254001 -0.3121846914 -0.7074786425 0.6340462565
-0.16718385 0.00488128 1.3920001 0.8825907111 -0.05481531844 0.4669356942
-0.090835817 -0.048089549 1.2190001 0.4713168144 -0.7290524244 0.4963295758
-0.055174373 0.03183559 1.2843636 0.03458198905 -0.8419728875 0.5384104252
-0.12181021 0.072140023 1.3490001 0.4179816246 -0.4329072833 0.7986755371
-0.10251681 -0.11645114 1.1353334 0.7456188202 -0.6122155786 0.2631437778
-0.1605536 -0.33055153 1.197 0.468596518 0.6048356891 0.6438875198
-0.047114402 -0.076816745 1.1683334 -0.3563643396 -0.6000673175 0.7161868811
-0.012054167 -0.012054167 1.25 -0.496633321 -0.7260887623 0.4755527675
0.024823399 -0.1129849 1.2432222 0.8275862932 -0.506754756 0.2414550334
-0.15354817 -0.1396793 1.13 0.4768170118 -0.5092501044 0.7164564729
-0.011696925 0.035094064 1.3342501 -0.4681720436 -0.6856600046 0.5573915243
-0.14430974 -0.20403738 1.1157335 0.7133043408 0.1504841745 0.6845082045
-0.18987723 -0.30373284 1.21 0.6643098593 0.362280935 0.6537927389
-0.15331936 -0.36453554 1.223 0.6215991974 0.2787470818 0.7320618033
-0.015509384 0.012996748 1.2751875 -0.3690189123 -0.7531520128 0.544598043
0.02415392 0.005422309 1.3120002 -0.006220890675 -0.4148844182 0.9098528624
-0.070031643 -0.0055580665 1.268 0.8368520141 -0.4683502913 0.2834196985
-0.085279286 0.034573544 1.3145001 0.59285748 -0.2029013336 0.779327333
-0.017669741 -0.12428608 1.1324 -0.5490720272 -0.5660045743 0.6149461269
-0.063871928 -0.0085046683 1.2348573 0.09098052233 -0.7785596251 0.6209407449
-0.12325085 -0.35336354 1.1683334 0.6150714159 0.4084178805 0.6744493842
-0.06598758 -0.2318068 1.0662 0.1128678918 0.2346515656 0.9655047655
-0.14415818 -0.054803938 1.3590001 0.7244918942 0.2081875354 0.6570916772
-0.15904398 -0.21706004 1.141 0.8633339405 0.08098863065 0.4980917573
-0.16962449 -0.025626719 1.3920001 0.8707413077 0.01316792984 0.4915650487
-0.013791719 -0.43827021 1.748 -0.102698572 0.6649128795 0.7398269176
-0.020471919 -0.15500169 1.1120001 -0.4523097873 -0.5917055607 0.6673082709
-0.11475636 -0.22353084 1.107842 0.6050964594 0.1134207547 0.7880316973
-0.17764334 -0.25659594 1.1850001 0.8435296416 0.06731177866 0.5328478813
0.00099414005 -0.19982214 1.1340001 -0.8766567707 -0.04299217463 0.4791915715
-0.0053038332 -0.0604637 1.21 -0.7184683084 -0.4996850491 0.4838576019
-0.023385083 -0.18988687 1.067 -0.1409688592 -0.2380269319 0.960973978
-0.18796697 -0.04919941 1.439 0.9205074906 -0.01735210232 0.3903394341
0.020015176 -0.057690803 1.3430001 0.7055091858 -0.4651888311 0.5346551538
-0.061222892 0.067109711 1.3430001 -0.4203192294 -0.8751241565 0.239769578
-0.098511033 -0.0023179066 1.322 0.6136546731 -0.06602144986 0.7868094444
-0.14525734 0.014534188 1.3555386 0.6936378479 0.01180441305 0.7202271819
-0.13084513 -0.29516226 1.1570001 0.6595283151 0.2009157985 0.7243308425
-0.11866122 -0.38074774 1.177 0.6001429558 0.3720276952 0.7081128359
-0.055431485 -0.28474861 1.0965 -0.2448950708 0.5179384351 0.8196134567
-0.12601882 -0.14375933 1.1242858 0.5541624427 -0.6075497866 0.5690231323
-0.06482324 -0.14330105 1.1012856 0.03774056956 -0.5878525972 0.8080872297
-0.11477043 0.04450373 1.3358573 0.5530441403 -0.1810843498 0.8132346869
0.068364657 -0.016502811 1.3445001 -0.4389808774 0.6672477722 0.6017277241
-0.12167235 -0.26414865 1.117 0.7410789728 0.2992206514 0.6010565162
-0.023256388 -0.23588243 1.1145999 -0.8676947951 0.1494152993 0.4741105437
-0.084301703 -0.34291583 1.1361817 -0.1048678979 0.6591755152 0.7446411252
-0.0019023666 0.0072289933 1.302 -0.6360970736 -0.6266015768 0.450278759
-0.0091602895 -0.11094129 1.161 -0.7603433728 -0.4710576236 0.4471942186
-0.18139549 -0.10133127 1.427 0.8418591022 0.1365773529 0.5221300721
-0.055428132 -0.095620662 1.1461669 -0.2906294763 -0.7237663865 0.6258567572
-0.10464716 -0.16522163 1.1065936 0.1340614855 -0.2984900177 0.9449504018
0.019046459 -0.10867686 1.2780001 0.8285205364 -0.4998691678 0.2523580194
-0.089946002 -0.1912536 1.08 0.5738431215 -0.2047219276 0.7929646969
-0.10196277 -0.30294648 1.1183333 0.6576900482 0.3504687846 0.6667948961
-0.042446446 -0.10957106 1.126 0.00334480498 -0.6388362646 0.7693354487
0.0046397587 -0.093981735 1.3235 0.7932204604 -0.4455105364 0.4151164889
-0.071633309 -0.019329622 1.2970001 0.8208000064 -0.08637565374 0.5646473169
-0.1792345 -0.044499602 1.4100001 0.9213448763 -0.05011383817 0.385502547
-0.081852272 -0.25369123 1.0769999 0.4638856053 0.2995472848 0.8337154984
0.0035899498 -0.05384925 1.3650001 0.7050247788 -0.4584756494 0.5410546064
-0.15269867 -0.290025 1.169 0.4742094874 0.4329068065 0.7666270733
-0.034411795 0.042554978 1.3262 -0.4211912453 -0.8026930094 0.422234416
-0.16533746 -0.19595015 1.153 0.8949674368 -0.05691885948 0.4424855709
-0.16862507 -0.075081237 1.4039999 0.8149764538 0.1893220991 0.5476956367
-0.029160563 -0.21353057 1.0730001 -0.6141377091 0.2254124284 0.7563227415
-0.14442733 -0.34548378 1.2102499 0.728615582 0.4085179567 0.5497566462
0.034095842 0.026767964 1.3050001 0.1548722237 -0.4895133376 0.858132422
-0.13230783 -0.0047278632 1.3475001 0.6786383986 -0.03675947338 0.7335520983
-0.055803053 -0.045203652 1.1861427 -0.2247725278 -0.7144175768 0.6626347899
-0.090147629 -0.096091434 1.13 0.2109096348 -0.6176621318 0.7576348782
-0.070836417 -0.051805738 1.2060001 0.7673153877 -0.5418756008 0.3429255784
0.005540533 -0.021054026 1.2640001 -0.7206447124 -0.5443454981 0.4293706715
-0.132687 -0.26038578 1.138 0.7013864517 0.4409535825 0.5600152016
-0.024599394 -0.066724226 1.1761429 -0.2159815282 -0.6805084944 0.7001857758
-0.10430577 -0.025496971 1.3220003 0.6366347671 -0.02315486036 0.7708177567
-0.066363662 -0.31875512 1.1470001 -0.8872103095 0.04726940766 0.4589373171
0.0058037834 0.018403238 1.3237144 -0.1321329921 -0.7596444488 0.6367740631
-0.16875289 -0.2469207 1.161 0.8492016196 0.06899342686 0.523542285
-0.1129523 -0.31434366 1.1355385 0.7476212978 0.2624454498 0.6100694537
-0.044593111 -0.15257214 1.09 -0.01741400361 -0.5810437202 0.8136860132
-0.023336867 -0.0413699 1.21 -0.4020181 -0.7013940811 0.5885812044
-0.08673083 0.073750898 1.3460001 0.1190942004 -0.8666886687 0.4844247401
-0.054598805 -0.17294878 1.08 0.1014631018 -0.478228122 0.8723549247
0.013304645 -0.15394232 1.2044001 0.8252544403 -0.5171985626 0.2268496007
0.014244081 0.035016697 1.3540001 -0.1676010638 -0.8017897606 0.5736227632
-0.10495921 -0.27913299 1.1120001 0.6423580647 0.3503945172 0.6816155314
-0.14622284 -0.085958034 1.381 0.6379478574 0.333889693 0.6939309835
-0.25432363 -0.30030304 1.6390001 0.09307017177 0.719470799 0.6882584691
-0.042266902 -0.25589973 1.0908 -0.4698159397 0.3060564697 0.8280110955
-0.094669193 -0.0839312 1.1844999 0.5494669676 -0.6886909008 0.4730654359
-0.13442685 0.035673141 1.3474003 0.6397476792 -0.05288336053 0.7667635083
-0.16934569 -0.1100129 1.4100001 0.8231824636 0.1429013759 0.5494996309
-0.075027525 -0.27419806 1.0862105 0.178919673 0.4835581183 0.8568309546
-0.063292995 0.015920267 1.2666668 0.4769893587 -0.75153023 0.4557229877
-0.080621772 -0.11947564 1.108 0.06650802493 -0.465787977 0.8823934793
0.0130974 -0.1331569 1.245 0.8340941668 -0.4877880216 0.257584542
-0.10571682 -0.35542288 1.1544545 0.4456091523 0.5009205937 0.7419642806
-0.16956837 -0.35209739 1.2320001 0.4763204753 0.4443624914 0.7587231398
0.015113734 -0.074393928 1.3260001 0.7493826151 -0.5030173063 0.4305801392
-0.07454367 0.07129018 1.3244001 0.07457149029 -0.8061282039 0.5870233178
-0.15686159 -0.30705485 1.1827143 0.5800484419 0.3775007427 0.7218289375
-0.067343779 0.038645215 1.302 0.4000356197 -0.5125774145 0.7597603798
-0.045287028 -0.035282325 1.2043157 -0.3129453063 -0.6993100643 0.6426746249
-0.15599057 -0.035134461 1.3740001 0.8139907122 0.09019699693 0.5738323927
-0.11460152 -0.1152366 1.1546841 0.2898475528 -0.7814162374 0.5526093245
-0.15911543 0.024296377 1.3855001 0.871630013 -0.1108097807 0.4774749279
-0.066992894 -0.30255717 1.1035 -0.1761044264 0.645367682 0.7432952523
-0.026225191 -0.0023393361 1.2640001 -0.4104646146 -0.7428854704 0.5288099647
-0.064272262 -0.064267769 1.1637205 -0.1182017177 -0.7465768456 0.6547147036
-0.17464516 -0.26860628 1.1650001 0.7236670852 0.217195794 0.6550816298
-0.12505819 -0.20455518 1.1058397 0.2572940886 0.1438105106 0.9555722475
-0.075214133 -0.2049517 1.0724169 0.3331972361 -0.1536769569 0.9302489161
-0.018406844 -0.084884301 1.1666 -0.693533957 -0.5294891596 0.488520056
-0.15561672 -0.19443473 1.1322223 0.8639110327 -0.08384432644 0.4966163933
-0.016748015 0.05260719 1.3454001 -0.3652599752 -0.7822526097 0.5046444535
-0.11215255 -0.044369463 1.3280001 0.6129693389 0.1629856378 0.7731133699
-0.17531526 -0.30559039 1.1946 0.609064877 0.3713846803 0.7007948756
-0.033968389 0.015135587 1.2855002 -0.3944490254 -0.7982043624 0.4552798271
-0.15508628 -0.24530132 1.1450002 0.6655317545 0.3465696573 0.6610271931
-0.043426558 0.037333142 1.3036667 -0.4972293973 -0.719283402 0.4851745069
-0.045538235 -0.22441755 1.0654999 -0.1734418422 0.1699136943 0.9700759053
-0.12602985 -0.32522225 1.1544117 0.6697649956 0.2614361048 0.6950294971
-0.11724919 -0.0054534511 1.3330001 0.6118116379 -0.05523905903 0.7890723348
-0.036406737 -0.0080655087 1.2434001 -0.3980848193 -0.7582970262 0.5162500143
-0.02743721 -0.21893874 1.0944 -0.9103419185 0.1372821033 0.3904244006
-0.014057934 -0.024333052 1.2336668 -0.5314369202 -0.6111329794 0.5865929127
-0.08634185 -0.065018162 1.2040001 0.4373773336 -0.7476038933 0.4997894466
-0.15664953 0.0040043215 1.3710002 0.8313108683 -0.02355677448 0.5553082824
-0.14084527 -0.18552721 1.108 0.6562362313 -0.06688068062 0.7515856624
-0.11821587 -0.24481864 1.1126001 0.6257593036 0.1243377477 0.770042479
