# .PCD v0.7 - Point Cloud Data file format
VERSION 0.7
FIELDS x y z normal_x normal_y normal_z
SIZE 4 4 4 4 4 4
TYPE F F F F F F
COUNT 1 1 1 1 1 1
WIDTH 206
HEIGHT 1
VIEWPOINT 0 0 0 1 0 0 0
POINTS 206
DATA ascii
-0.10770639 -0.2360837 1.2410001 0.7824075222 0.07564619184 0.6181554198
0.053836975 -0.36817545 1.9810001 -0.2459430695 0.7607454658 0.600648284
0.12359948 0.049173985 1.516 -0.7612327933 -0.5820793509 -0.2858465612
-0.20518382 -0.033970833 1.5500001 0.8716363311 -0.1528329998 0.465716809
0.044534445 0.014756272 1.2352501 -0.0810649991 -0.8031546474 0.5902296901
-0.086836472 0.12641971 1.411 0.722063005 -0.3717651069 0.5834515691
0.052580535 -0.16378537 1.149 -0.253351748 0.2530416548 0.9336931109
-0.11559376 -0.058084428 1.312 0.6659226418 -0.3363941014 0.665872395
0.11759256 -0.24988419 1.863 -0.3118769825 0.7341240048 0.603153944
0.072782621 0.10545073 1.3700001 -0.6847798228 -0.5760830045 0.4463239014
-0.056784596 -0.074305788 1.181 0.5988813639 -0.232400164 0.7663754225
-0.13451572 -0.0050303135 1.4340001 0.4264265299 0.08093351126 0.9008941054
-0.19336636 -0.14172193 1.3700001 0.8758689165 -0.3976433575 0.2733740509
-0.026594311 0.023505939 1.37 0.3408513963 0.4633189142 0.8180195093
0.10984107 -0.031979047 1.5860001 -0.7736190557 -0.5722587109 -0.2720910311
-0.023732243 -0.23009957 1.177 0.1832081228 0.4760967791 0.8600968719
-0.18150067 -0.24257673 1.3145001 0.7353590727 0.570171237 0.3662673831
-0.15222239 -0.14650653 1.2674286 0.6458569169 -0.4423977733 0.6222162843
0.081558935 -0.072534524 1.1876668 -0.3869440854 -0.6208081841 0.6818148494
-0.044728477 0.0044761975 1.2755001 0.5103185773 -0.5992057323 0.616869092
-0.168391 -0.10051246 1.4890001 0.8038841486 0.1783810109 0.5674067736
-0.0043238453 0.16724633 1.3809999 -0.05729526281 -0.5250803828 0.849121809
-0.09129519 -0.1605536 1.197 0.4596502483 0.3061361909 0.8336679935
-0.18317191 0.034535989 1.4959999 0.8692940474 -0.2327388972 0.4360738993
0.084409632 0.045349017 1.3040835 -0.6653980017 -0.5377809405 0.5177230835
0.1297905 0.060568899 1.4100001 -0.4299363792 -0.692723453 0.5790414214
-0.14002909 0.073168352 1.439 0.7683038712 -0.2872020304 0.5720351338
0.015407765 -0.095192403 1.1563998 0.270791769 -0.3107812107 0.9110910296
-0.0119139 0.095311195 1.3590001 0.1865498275 -0.09806849062 0.9775385857
-0.025206715 -0.15538894 1.1626365 0.3773229122 0.008448299952 0.9260432124
-0.013800988 -0.021386908 1.2111429 0.07437608391 -0.7968224287 0.5996183753
-0.079995833 -0.071229167 1.25 0.6802953482 -0.2742736638 0.6796853542
0.013816851 0.046831239 1.3136667 0.5517732501 -0.7244715095 0.4131432474
-0.085480005 0.054948322 1.3929001 0.5536673069 0.1453203857 0.8199600577
-0.16109452 -0.10778266 1.322 0.604593575 -0.5974389911 0.5268142223
-0.17527916 -0.034637272 1.4854 0.9174309969 0.1649801433 0.3620800674
-0.057470761 -0.27138969 1.2140001 0.3149347901 0.5286248922 0.7882714272
-0.075869858 -0.003008845 1.4121429 0.3620018661 0.3544505537 0.862159729
-0.16224733 -0.21364929 1.2589999 0.6303899288 0.299446851 0.7161983848
0.042194262 -0.025776239 1.1867777 -0.4748271704 -0.6341577768 0.6102319956
-0.1362638 -0.0649499 1.4526666 0.2408440709 0.4198618233 0.875048697
0.063532911 0.13329454 1.4210001 -0.7185778618 -0.6608538628 0.2166055739
0.051955651 0.0923656 1.317 0.3096503615 -0.6698160172 0.6748800874
0.081750922 -0.027967419 1.2270001 -0.4490913153 -0.663087368 0.5988590717
-0.1340809 -0.28035098 1.2640001 0.5377214551 0.02710551396 0.8426867723
-0.10920345 -0.12217578 1.2333335 0.766582191 -0.5215620399 0.374599427
-0.17827894 -0.16217633 1.312 0.9260587096 -0.2761279941 0.2572324872
-0.074593812 -0.21506035 1.2047501 0.6095849872 -0.03030483052 0.7921412587
-0.04550777 0.13459183 1.3732002 0.4765053391 -0.1966551095 0.8568952084
-0.13295263 -0.17559752 1.2263333 0.6453156471 -0.07722637802 0.7600024939
0.073360167 -0.11571106 1.1557999 -0.4250396788 -0.2322629988 0.8748686314
0.01526715 -0.19847295 1.161 -0.0286989361 0.4984080493 0.8664674163
0.0041250917 0.023964809 1.2671427 -0.02383902669 -0.7411960959 0.6708651781
-0.11810015 -0.1012287 1.2830001 0.7158737779 -0.5578776002 0.4198777378
0.03494744 0.14256968 1.3590001 -0.1777611077 -0.5182510018 0.8365505934
0.0845327 0.0063320389 1.2640001 -0.5567799211 -0.5628561974 0.6108919382
-0.0060635139 -0.053666905 1.1747779 0.1978320181 -0.7079853415 0.67795223
-0.065107547 -0.12488278 1.1756668 0.5609223843 0.08708894253 0.8232749104
0.094676495 0.095922239 1.4210001 -0.5891380906 -0.6812462807 0.4345340431
-0.082267933 -0.026305918 1.2767501 0.603505373 -0.5173392296 0.6067465544
-0.045006253 -0.03486219 1.2450001 0.6064590216 -0.5499034524 0.5742940307
0.044322658 0.045070309 1.2746665 0.3162671626 -0.7555357218 0.5737079978
-0.12082307 0.035477825 1.4150001 0.5281763077 0.09005373716 0.8443459868
-0.065451503 0.094535343 1.3825003 0.4760498106 -0.03198481724 0.878836453
-0.16434823 0.035373021 1.4552728 0.8041827679 -0.1800073832 0.5664693117
-0.088123411 -0.28830498 1.2410001 0.4293687344 0.577571094 0.694301188
-0.089569032 -0.097999059 1.202 0.8243255615 -0.3064189553 0.4760197699
-0.14666322 -0.24510199 1.2857778 0.6961374879 -0.0511094667 0.7160868645
0.085344568 0.073453203 1.3364615 -0.5872208476 -0.693731606 0.4170229733
0.044287227 -0.064762659 1.1680001 -0.3889732361 -0.4205881655 0.8196373582
0.015011864 -0.1451418 1.1418003 0.3181989193 0.04645780101 0.9468849301
-0.025015002 -0.11324264 1.1567776 0.02777485177 0.163218379 0.9861989021
-0.097988531 -0.032662846 1.4330001 0.2711949944 0.3180533946 0.9084576368
0.023355627 0.075744882 1.3458004 0.7272834778 -0.3133295476 0.6106417179
-0.053065833 -0.18396907 1.1868182 0.7254085541 0.1717415899 0.6665487885
-0.11146628 0.093745098 1.4150001 0.6757552028 -0.334123522 0.6570512652
-0.039634101 0.062453732 1.3700001 0.5245253444 0.021994479 0.8511106968
-0.1938187 -0.065923579 1.5040002 0.7743119597 -0.002081107115 0.6328006387
-0.001971039 0.045728102 1.3490001 0.2290660739 0.2135682255 0.9496932626
-0.041834533 -0.040788669 1.1930001 0.1091607735 -0.6928306818 0.7127900124
0.022261698 -0.014889683 1.2258574 0.4582483172 -0.7255223989 0.5134449601
-0.17740859 0.004649139 1.4728001 0.814576447 0.03965622559 0.5786989927
0.10357483 0.065734401 1.3834001 -0.6378098726 -0.6938438416 0.3343340755
-0.16803963 -0.18378633 1.2830001 0.755941391 -0.1486616582 0.6375361681
-0.017898612 -0.0018263889 1.25 0.5006213784 -0.6631172895 0.5564653873
-0.025531933 -0.19504613 1.1648403 0.3334719241 0.2661113143 0.9044231772
-0.15733448 -0.035723288 1.4450001 0.6203175187 0.1600035578 0.7678574324
-0.063634016 0.025939984 1.3870001 0.5079753995 0.3394652307 0.791659236
-0.10223482 -0.19271441 1.2190001 0.3965008855 0.2287767828 0.8890715241
-0.073457949 -0.068487242 1.2143334 0.7453598976 -0.628443718 0.2224794626
-0.10195458 -0.067222804 1.2780001 0.7933855057 -0.3673487604 0.4853806198
0.0012010334 0.1261085 1.3700002 0.1898582131 -0.2193013728 0.9570061564
-0.14732921 -0.12366398 1.2941428 0.6081331372 -0.6398976445 0.4697925746
-0.12837732 -0.20670922 1.2410001 0.4020107985 0.4963419139 0.7694361806
0.055876542 0.13117519 1.3855001 -0.7060744166 -0.6380494833 0.3071674109
-0.16793296 -0.065874048 1.4735 0.8419191241 0.3299472034 0.426974237
-0.18739276 -0.026580533 1.516 0.9158275127 -0.02818164788 0.4005818367
-0.022517534 -0.076884195 1.1570001 0.2825092375 -0.4291006923 0.8579400778
0.065229043 -0.04387958 1.2024999 -0.4272973835 -0.6346437931 0.6439287663
-0.16224733 -0.25716755 1.2590001 0.3807453215 -0.3474741876 0.8569099307
-0.085170463 -0.24486022 1.214375 0.536303401 0.1930260062 0.8216566443
-0.033888482 -0.25425616 1.1970003 0.2355265468 0.4764125049 0.8470881581
-0.13791545 -0.079967782 1.322 0.7156221271 -0.3072836399 0.6272652745
0.053581662 -0.014852013 1.2166922 -0.6538003683 -0.50726372 0.5614522099
0.039094426 0.064707816 1.3040001 0.6469964981 -0.4717055261 0.5990738273
0.043562442 0.10949479 1.3430001 0.02559709921 -0.682062149 0.730846107
-0.15214288 -0.17637236 1.2565556 0.8129995465 -0.2589840293 0.521496892
0.035020623 -0.11506324 1.1413202 -0.1197588816 -0.2359930277 0.9643470049
-0.12857758 -0.1441627 1.2444285 0.7415179014 -0.3791776299 0.5535119772
-0.13443351 -0.23111966 1.2590001 0.5005054474 0.5205324888 0.6917660236
-0.035014443 0.16535899 1.3840002 0.314984709 -0.4112646878 0.855363071
-0.065984063 0.14418554 1.3938 0.6031440496 -0.3110089898 0.734500289
0.071704321 0.030250261 1.2780001 -0.615233779 -0.5316951871 0.5820546746
-0.17321354 -0.23057649 1.2830001 0.6385851502 0.5844991803 0.5005694032
0.02201573 0.16265234 1.3950001 -0.1003830954 -0.6374304891 0.7639408112
-0.10043883 -0.097127654 1.2590001 0.6365503073 -0.5117859244 0.5769565701
0.013611418 -0.031061178 1.1943334 0.4236982167 -0.7825904489 0.4561052918
-0.057134621 -0.15467541 1.1818572 0.5941327214 0.2500532269 0.7645127177
-0.11467297 -0.15478511 1.2148889 0.6605404019 -0.2043878287 0.7224347591
0.066744357 -0.0054467302 1.243 -0.6521012187 -0.5168249607 0.5546674132
0.058015171 -0.09058509 1.161 -0.3370599747 -0.4428891838 0.8308066726
-0.11621825 -0.26454866 1.2441112 0.6310325861 0.2560171187 0.7322930694
-0.1062441 -0.0065846439 1.4210002 0.3544355035 0.3509189487 0.8667360544
-0.12854037 -0.12189174 1.2640001 0.6724298 -0.614340663 0.4128241241
0.024426783 -0.17275025 1.149 -0.04351701215 0.3930444717 0.9184891582
-0.11402693 0.064448148 1.4137502 0.5464058518 -0.02690696903 0.8370882273
-0.0050612767 -0.17501397 1.1539599 0.3502608538 0.160359472 0.9228229523
-0.093943603 0.024722004 1.41 0.4423357546 0.2016916573 0.8738761544
-0.159115 -0.0050916802 1.452 0.7092065811 -0.03231281042 0.7042598128
-0.061912831 -0.24030572 1.197 0.4445011318 0.32932657 0.8330442905
-0.175947 -0.14896846 1.3380001 0.8423059583 -0.4567454755 0.2861891687
0.032158762 0.018298663 1.265 0.3820106983 -0.7418287992 0.5511423349
-0.12602413 -0.035287805 1.4375 0.2239402235 0.2296401858 0.9471621513
-0.04495652 -0.095011204 1.1654003 0.5328994393 -0.2568391263 0.8062579036
-0.15187374 0.067166686 1.4640001 0.8138799667 -0.3933867514 0.4276052415
-0.095991895 -0.12552395 1.2032307 0.8006100655 -0.1848879308 0.5699473023
-0.074858122 -0.1845644 1.2047499 0.5055828094 0.2533004582 0.8247574568
0.067861013 0.06671083 1.312 -0.6435488462 -0.6340849996 0.4286969602
-0.14516965 0.045589995 1.4366 0.6582147479 -0.07558590919 0.7490261197
-0.035373405 0.10598443 1.3703336 0.3530329168 -0.01588512212 0.9354760647
0.025714705 -0.044229127 1.1733203 0.08144693822 -0.4616402388 0.883320272
0.05528732 -0.13517094 1.1486192 -0.291120708 -0.03964774683 0.9558644295
0.017148038 0.11412315 1.3490001 0.387573272 -0.2661601007 0.8825790286
0.0026957497 -0.12352043 1.1533333 0.5067133307 -0.2643865049 0.8205738068
0.12229763 0.081937656 1.3950001 -0.4299363792 -0.692723453 0.5790414214
0.0043042582 -0.22156683 1.1689999 -0.02001119405 0.5157580376 0.856500566
-0.091918498 0.087016173 1.3980001 0.6540133953 -0.02554694377 0.7560514808
-0.055043284 -0.21496403 1.186565 0.5338885784 0.1151045859 0.8376836777
-0.19016653 0.0013114933 1.4960001 0.9457130432 0.07507818937 0.3162120581
-0.074161172 -0.045811754 1.2555001 0.6037448645 -0.3988230526 0.6902407408
-0.097334199 -0.046512425 1.294 0.8358488679 -0.3141483665 0.4501861036
-0.021539699 0.1412047 1.365 0.05515574664 -0.2219609469 0.9734942913
-0.057621546 -0.022162132 1.2640001 0.5391920805 -0.5348592401 0.6505362988
0.015427704 0.0020264776 1.2444285 0.1650804579 -0.7646775842 0.6229098439
-0.072956204 0.12037773 1.3870001 0.563934803 -0.2160472274 0.7970578074
0.062679037 0.093427241 1.3490001 -0.6574024558 -0.5018260479 0.5621322393
-0.15012127 0.01513828 1.439 0.56365031 0.02789614908 0.8255423307
-0.086051293 -0.26791608 1.2255456 0.4276974797 0.4513929784 0.783147037
-0.18239029 -0.20490855 1.2842501 0.7794312239 -0.1517682374 0.6078267097
-0.17050114 -0.15808053 1.2880001 0.8324270844 -0.2046566457 0.5149570704
-0.20240392 -0.048255239 1.529 0.8416778445 -0.1541820019 0.5175000429
-0.021054026 0.021054026 1.2640001 0.3997129798 -0.6789790392 0.6158059835
0.024918374 0.039642867 1.2920001 0.3732365072 -0.8000499606 0.4696962237
-0.11927839 -0.084465079 1.302 0.6955100298 -0.367056638 0.6176854372
-0.035082445 -0.05881469 1.177 0.1809706837 -0.5284138322 0.8294748068
0.063716128 0.052747279 1.2880001 -0.4619694054 -0.6044382453 0.6490290165
0.062504679 0.01528897 1.2556667 -0.6380904317 -0.5536924005 0.5350376964
-0.12421168 0.095678516 1.436 0.7486767173 -0.3681310117 0.5513281226
-0.044927549 -0.13520345 1.1660528 0.3967944086 0.1917302608 0.8976601362
-0.13597926 -0.10398193 1.3034286 0.6378459334 -0.58730793 0.4982187748
0.0051061623 -0.074524835 1.1645204 -0.1172935739 -0.3085548878 0.9439470768
-0.16798599 -0.13939263 1.3590001 0.8865042329 -0.3752233982 0.2707723081
0.09436965 0.082930915 1.3980001 -0.6371181607 -0.7021121979 0.317991972
-0.16703393 0.0459667 1.4770001 0.8368663788 -0.3528631032 0.4185000956
-0.1713616 -0.2519334 1.2945001 0.701995492 -0.2640478611 0.6614235044
-0.13463399 -0.25445682 1.2668887 0.6588656306 -0.1415740252 0.7388185263
0.081504576 -0.085252911 1.1670001 -0.4106006622 -0.4757468104 0.7778638005
-0.098907068 -0.21630898 1.223 0.6140096188 0.1471704543 0.7754566669
0.014154662 0.15477578 1.3718461 0.07167442143 -0.5890436172 0.8049163818
-0.064816661 -0.0050142948 1.2848182 0.5443938375 -0.5853404999 0.6008426547
-0.16813064 -0.0256688 1.4640001 0.8741799593 0.08091367781 0.478813529
-0.10316034 0.11415024 1.4246 0.7424005866 -0.3468452096 0.5731838942
-0.042970695 -0.17494497 1.1670001 0.5593394637 0.07013709843 0.8259661794
-0.065593518 0.065589577 1.3855002 0.4853087962 0.004305718932 0.8743322492
-0.07446903 -0.10528786 1.1852221 0.6475685835 -0.1916220933 0.7375200987
-0.1731171 -0.073443629 1.4960001 0.7648307085 0.1772367507 0.619371593
-0.1237643 0.014999765 1.426 0.57185179 0.1809050888 0.8001617789
-0.033237062 -0.026804084 1.223 0.6061453819 -0.7579441071 0.2410570532
-0.022966163 0.073827349 1.3582858 0.3320088685 -0.2478304952 0.9101374149
0.013456942 0.056465335 1.3348751 0.7350607514 -0.4979525506 0.4601401389
-0.052473761 0.044029705 1.376 0.5241186619 0.1102267802 0.8444818854
-0.024277655 0.045153838 1.3554286 0.4480653107 0.252132982 0.8577100039
-0.1482005 -0.19505569 1.243 0.7118887305 0.1254477799 0.6909973025
0.027421258 -0.01476219 1.2030001 0.3243913651 -0.8398686647 0.4351906478
0.031339079 0.073121011 1.324 0.8101724386 -0.3368613422 0.4797343612
-0.011504496 -0.040788669 1.1930001 0.06255756319 -0.7414976358 0.668032825
-0.0060710916 -0.14464457 1.1537999 0.465722084 -0.09535701573 0.8797783852
0.05242116 0.12271316 1.3590001 -0.5807515383 -0.5977659822 0.5526332259
-0.03520469 -0.01539728 1.2548127 0.5106486678 -0.5834363699 0.6315377951
-0.045666229 0.084119685 1.3707502 0.4398875237 -0.1206007823 0.8899182081
0.035440426 -0.085049644 1.1549999 -0.03039257787 -0.5122144818 0.8583196402
-0.088163733 -0.050219849 1.273 0.7790215015 -0.3183686435 0.5401545763
-0.0050970446 -0.10502616 1.1630799 0.009375222027 0.04056985676 0.9991326928
-0.18251702 -0.094552293 1.5050001 0.7270990014 0.07657645643 0.6822485328
-0.093278207 -0.10399985 1.223 0.8523640633 -0.4411766827 0.2807822824
0.04793657 0.032508992 1.2570001 0.1534350812 -0.7679813504 0.6218217611
