# .PCD v0.7 - Point Cloud Data file format
VERSION 0.7
FIELDS x y z normal_x normal_y normal_z
SIZE 4 4 4 4 4 4
TYPE F F F F F F
COUNT 1 1 1 1 1 1
WIDTH 206
HEIGHT 1
VIEWPOINT 0 0 0 1 0 0 0
POINTS 206
DATA ascii
-0.29441765 0.064987637 1.1231997 0.02972812951 0.009546698071 0.999512434
0.26463217 -0.48757273 2.503 0.6879050136 -0.5610440969 0.460452199
0.45065838 -0.054475188 1.8830001 0.9925865531 -0.001059998758 -0.1215352193
0.33193561 -0.18070957 0.74739999 0.2916774154 -0.613094151 0.734193325
-0.093741968 0.26855808 1.4450001 0.7714829445 -0.4826398194 0.4145755172
0.49362755 -0.49456689 2.1429999 0.7539123297 0.3707718551 -0.5423508883
-0.42219654 0.33231714 1.3490001 0.2332988232 -0.8768955469 0.4202688336
-0.14453848 0.055914499 1.3232002 0.3382551968 -0.6398567557 0.690048337
-0.20867997 0.2721445 1.2270001 -0.3019085824 -0.750225246 0.588228941
-0.41461366 0.21319367 1.1871541 0.1264034808 -0.6420072913 0.7562068701
-0.43134367 -0.037648451 1.2270001 0.3387554884 -0.217242837 0.915450871
0.49825087 -0.38125268 2.3010001 0.993027091 0.04287127033 -0.1098145023
-0.20722297 -0.06026382 1.2060001 -0.5984498858 0.6034825444 0.526940763
-0.15256067 0.096653879 1.1747143 -0.8328666687 -0.3492978811 0.4293297827
-0.278247 0.35042822 1.3280001 0.003897980088 -0.8963912129 0.4432467222
-0.14500605 0.19538149 1.3246251 -0.9000583887 -0.009044521488 0.4356755018
-0.32709047 -0.075020753 1.141 0.3995219767 0.3282687068 0.8559333086
-0.28482813 0.20052698 1.138 0.1002883688 -0.6402153373 0.7616209984
-0.42612299 0.076387353 1.153 0.3908382654 -0.2719592154 0.8793654442
-0.3445344 0.29141715 1.245 0.1753417552 -0.7293912768 0.6612440348
-0.15761766 0.32334799 1.322 -0.502594471 -0.6058562994 0.6167146564
-0.12813887 0.15828918 1.4330001 0.7815070748 -0.4549480081 0.4269297421
-0.20570703 0.017969513 1.1446363 -0.3186874092 0.6441062093 0.6953887343
0.49497736 -0.42419708 2.2120001 0.9629098177 0.1318616122 -0.2354084551
-0.18535602 0.19286816 1.1755716 -0.6111553907 -0.5129188895 0.6028294563
-0.36950624 0.15156689 1.13 0.450014025 0.2314093113 0.8625178933
-0.22512157 0.12749232 1.123 -0.3550546467 -0.3132036328 0.8808176517
-0.1270954 0.13452691 1.25525 -0.7416222692 -0.4781535268 0.4704950154
-0.36533555 0.007183657 1.1475716 0.07426144928 0.6325887442 0.7709193826
-0.1589607 -0.018897427 1.268 -0.4550776482 -0.6604628563 0.5972379446
-0.28176242 -0.0092549697 1.1730001 0.04357465729 0.5941812396 0.8031499982
-0.42396149 0.26819754 1.25125 0.3520555198 -0.7329993844 0.5820384622
0.46597549 -0.10411907 1.9470001 0.9914613366 -0.009484654292 -0.1300554127
-0.12851056 0.26422733 1.3700001 -0.9740275145 -0.1630159318 0.1571504176
-0.18468912 0.048170377 1.2320001 -0.01493183337 -0.5189145207 0.8546957374
-0.28482264 0.2547715 1.1959336 0.06279335171 -0.7648134828 0.64118433
-0.32700893 -0.071599998 1.2190001 0.05692055821 0.6937727332 0.7179411054
-0.26820478 0.31014624 1.2590001 -0.1099353358 -0.7941749692 0.5976623893
-0.14400688 0.11419916 1.3712001 0.281584233 -0.5625823736 0.7773103714
-0.24424404 -0.066194773 1.1409999 -0.5856276155 0.1602373719 0.7945843339
-0.16179992 0.25377396 1.2846667 -0.9338548779 -0.09122834355 0.3458213508
-0.35041595 0.33443606 1.302 0.1614578217 -0.872240901 0.4616570175
-0.43459085 0.14520657 1.1664286 0.4168733358 -0.5356370807 0.734376967
-0.34555724 0.21844977 1.1740001 0.1724285632 -0.6700767279 0.7219872475
-0.18062139 0.17729706 1.2640001 -0.6052996516 -0.5882508159 0.5362586379
-0.30424237 0.13489088 1.1231197 0.0689170137 -0.0635587424 0.9955956936
-0.36430815 0.086599313 1.1245788 0.2638087571 0.3570872843 0.8960433006
-0.38462961 -0.061499044 1.189 0.5339387655 -0.4455669224 0.7185955048
-0.12037773 0.20306142 1.3870001 -0.5136924982 -0.7174835801 0.4704649746
-0.20727028 0.31109217 1.2780001 -0.3318261504 -0.7714717984 0.5428836346
-0.21537946 0.35042822 1.3280001 -0.1125027016 -0.8163095117 0.566552639
-0.16487893 -0.0052838447 1.2055999 -0.1169381738 -0.1102457196 0.9870011806
-0.26726496 -0.060742483 1.2050002 0.07242805511 0.5748329759 0.8150590658
-0.146117 0.24203627 1.4246 -0.6172932386 -0.5581824183 0.5544198751
-0.22430393 0.18690006 1.13025 -0.3993185461 -0.4397393763 0.8044712543
-0.23479784 0.065982237 1.119 -0.1722069085 -0.05746439472 0.9833832383
-0.23510075 0.22575912 1.1742311 -0.1345880777 -0.7136532664 0.6874482036
-0.16575137 0.15087609 1.2120001 -0.8805008531 -0.4060572684 0.2446135283
-0.17200726 0.22609408 1.2340001 -0.8878679872 -0.3047284782 0.3447186649
-0.40154052 0.3093099 1.2830001 0.2512643337 -0.7978616953 0.5479807854
-0.37621856 0.24857301 1.21 0.2137259096 -0.7185254097 0.6618477702
-0.17723198 0.065636031 1.1354119 -0.5886086822 0.10477449 0.801599741
-0.33548236 -0.033498455 1.1756668 -0.1872106791 0.5893099904 0.7859172225
-0.17873551 0.14560014 1.1454002 -0.854418695 -0.08473582566 0.5126290321
-0.41465455 0.0122558 1.1650001 0.2480484843 0.5262441635 0.8133504987
-0.31480137 0.021577397 1.1409999 -0.006200119387 0.7151134014 0.6989809275
-0.22449839 -0.025507141 1.164 -0.1114737615 -0.03163748607 0.9932636619
-0.10740774 0.14550708 1.3870001 0.3261981606 -0.3992808759 0.856836915
-0.26467183 0.025864298 1.135 0.04713249207 0.6557438374 0.7535108328
0.49589178 -0.46525753 2.184 0.7539123297 0.3707718551 -0.5423508883
-0.16521379 0.015724385 1.3041875 0.1640942842 -0.5631537437 0.8098956347
-0.4045231 0.1153938 1.133158 0.4149593711 -0.2086849958 0.8855841756
-0.33446476 0.18511169 1.1348002 0.1530693322 -0.6510878205 0.7434073091
-0.26421416 0.16476841 1.1121199 -0.02290382795 0.01155727264 0.9996708632
-0.39462003 0.044840071 1.1343639 0.3272392452 0.05346241221 0.9434279203
-0.42338091 0.0097204801 1.2320001 0.2394367903 -0.2020152062 0.949663043
-0.14549862 0.27410209 1.3261539 -0.9377610683 -0.1075439304 0.3302097619
-0.38137805 0.19170333 1.1570001 0.4198895097 -0.5854367614 0.6935103536
-0.14359799 0.3087357 1.365 -0.9329935312 -0.3593346179 0.02004176565
-0.32989842 0.25776631 1.21 0.09502191842 -0.7453060746 0.6599164009
-0.26760599 0.1092765 1.108 -0.06825549901 0.2689340711 0.9607370496
-0.24559993 0.33087766 1.2970001 -0.121527046 -0.8506474495 0.5114979148
-0.3153291 0.31756768 1.2754999 0.042578049 -0.8100051284 0.5848749876
-0.28406763 -0.092686906 1.1430001 0.002154003363 0.3905517459 0.9205784798
-0.25517488 0.27769029 1.223 -0.08584475517 -0.7725010514 0.6291841865
-0.19535202 0.23618348 1.1942 -0.6975733638 -0.509305954 0.5039829612
-0.11802826 0.16009775 1.3330001 -0.7305463552 -0.4955841601 0.4697854221
-0.13831589 0.11366481 1.2167778 -0.7310542464 -0.4945516288 0.4700834155
-0.10047915 0.23569183 1.4150001 0.7473335266 -0.4064349234 0.5256455541
-0.32370126 0.34941041 1.3330001 0.06031348929 -0.9166817069 0.3950404227
-0.1224265 0.2487191 1.47 -0.2328685969 -0.7412105203 0.6295865178
-0.20320539 0.013744379 1.2060001 -0.3590769172 -0.4535483122 0.8156946301
-0.13722113 0.16534021 1.2830001 -0.4465616941 -0.8195280433 0.3591050506
-0.37500072 0.33750373 1.3367501 0.215436548 -0.8946623802 0.3913646936
-0.16426347 0.077155434 1.3540001 0.2537003458 -0.638717711 0.7264130116
-0.34555835 0.044302355 1.1229997 -0.02840519324 0.1595463902 0.9867816567
-0.32476696 0.094600111 1.1124798 -0.05335840955 0.4498511255 0.891508162
-0.30452237 0.22420217 1.1677692 0.1609168649 -0.7372137308 0.6562176943
-0.1584906 0.2069957 1.2867501 -0.6865426898 0.2632890344 0.6777448058
-0.42488271 0.24279466 1.2147001 0.1905490458 -0.7307268977 0.6555374265
-0.38528189 0.28195789 1.245 0.2024069726 -0.7203140259 0.6634599566
-0.17211817 0.29581994 1.2945 -0.6146665215 -0.5736857653 0.5413591266
-0.19396272 0.10739334 1.1409999 -0.4956078827 -0.008286848664 0.8685068488
-0.29600474 0.28203037 1.2263335 0.04212303087 -0.7353551984 0.6763714552
-0.18094137 0.34414339 1.3490001 -0.3553991318 -0.8083366752 0.4693434238
0.4997184 -0.35438198 2.2710001 0.9882115126 0.05985997617 -0.140907079
-0.39294827 -0.026079081 1.2060002 0.4568397105 -0.2387094796 0.8569219708
-0.36156979 -0.055707034 1.1552857 0.5794866085 -0.1982583106 0.7904991508
-0.18635006 0.28404945 1.2578 -0.5752874613 -0.6095294952 0.5454522371
-0.13736464 0.23536798 1.3262857 -0.9384591579 -0.02928926423 0.3441461325
-0.42035553 0.18422361 1.161 0.6839256287 -0.06687994301 0.7264797688
0.4997184 -0.40614563 2.2710001 0.993027091 0.04287127033 -0.1098145023
-0.3049196 -0.048280861 1.1943334 -0.02336694859 0.5377394557 0.8427872062
-0.19511162 -0.025333133 1.1930002 -0.5498936176 0.02535146102 0.8348498344
-0.17246576 -0.036214221 1.2270001 -0.8457812071 0.488491714 0.2145460397
-0.44830367 0.090074867 1.1810001 0.5091042519 -0.3131093383 0.8017327785
-0.36418691 0.30838707 1.273 0.2465923876 -0.7881214023 0.563965261
-0.1283326 0.082415432 1.3430001 0.272988677 -0.6176828742 0.7375262976
-0.37336648 -0.02710975 1.1743335 0.6358502507 0.5580785275 0.5331442356
-0.30435216 0.17240901 1.1190001 0.09504228085 -0.3550316989 0.930010438
-0.28542864 0.32960212 1.2920001 0.02155948617 -0.8423432112 0.5385100842
-0.24527146 0.25346673 1.1951818 -0.09607327729 -0.759500742 0.6433727741
-0.35329655 0.12122233 1.1190001 0.1759774685 -0.4803263843 0.8592545986
-0.23578456 0.2965979 1.2535557 -0.03369380161 -0.8057562113 0.5912881494
-0.33517188 0.15513465 1.1156536 0.08682900667 0.1408207268 0.986220181
-0.25606185 -0.035967812 1.1825386 0.316763103 0.457444787 0.8309063911
-0.39579347 0.15375957 1.1533077 0.6245014071 -0.1782093644 0.7604205608
-0.40102547 0.32497287 1.3145001 0.2244741023 -0.875831306 0.4272363782
-0.11846835 0.17590755 1.365 -0.9226799607 -0.1434877515 0.3578727841
-0.24643223 0.0022237527 1.153 0.1126329303 0.5743976831 0.8107904196
-0.26502296 0.22184263 1.1570002 -0.0147067206 -0.7753465772 0.6313647628
-0.15441179 0.1571608 1.253625 -0.3423838019 -0.8422412276 0.4164168537
-0.16694319 0.13345408 1.1755 -0.8260530829 -0.3783350885 0.4177306592
-0.15691528 0.065384954 1.243 0.2803965509 -0.3951758742 0.8747649789
-0.20843935 0.21249653 1.1570001 -0.396761924 -0.6690187454 0.6284853816
-0.31508064 -0.0051944512 1.1654618 -0.06742107123 0.5384124517 0.8399800062
-0.16965428 0.2075894 1.202 -0.5477657318 -0.5894953609 0.5936732292
-0.35230485 -0.057253931 1.202 -0.03133743256 0.7473820448 0.6636551023
-0.18905754 0.32197073 1.307 -0.4167777002 -0.6864202619 0.5959224105
-0.11527728 0.22759874 1.4450001 -0.09210552275 -0.7905499339 0.6054315567
-0.23081759 0.034672167 1.13 -0.1902895272 0.4201976955 0.8872563243
-0.20236149 0.17506999 1.153 -0.6934275031 -0.2775131166 0.6649397016
0.47819361 -0.46685305 2.1560001 0.7539123297 0.3707718551 -0.5423508883
-0.31581712 0.33562803 1.3036667 0.03121127561 -0.8886586428 0.4575059414
-0.37742224 0.21789055 1.1816667 0.2202576995 -0.6546670794 0.7231165767
-0.39563265 0.085351393 1.1454002 0.5551367402 0.07782243192 0.8281103969
-0.22515917 0.094229802 1.1314399 -0.2629396021 0.1926692724 0.9453788996
-0.1339722 0.20964168 1.4150001 -0.4229764044 -0.796595037 0.4318880141
-0.1538976 0.067268737 1.1626 -0.8206532598 0.01730601862 0.57116431
-0.20609011 0.054950047 1.126 -0.1739016175 0.2062265426 0.9629272223
-0.16545413 0.024344957 1.2162609 0.0285630431 -0.488607198 0.8720362186
-0.26488578 0.075823091 1.1232398 0.01371317077 0.00803565979 0.9998736978
-0.35563862 0.26807463 1.2247779 0.168478176 -0.7291305661 0.6633126736
-0.18115412 0.25739428 1.2423334 -0.7337715626 -0.4385664165 0.5188822746
-0.21355996 -0.053005461 1.174 -0.8425060511 0.1861098111 0.5055162907
-0.25479388 0.19540146 1.1314116 -0.0229275804 -0.6636763215 0.7476684451
-0.41338867 -0.051805738 1.2060001 0.3763512075 -0.2165211588 0.9008209109
-0.42365018 0.046769772 1.1439092 0.420253396 -0.08183975518 0.9037086368
-0.24550149 0.34676352 1.3254286 -0.0616784282 -0.8391172886 0.5404423475
-0.21470128 0.15437277 1.1344445 -0.2969465256 -0.3022089303 0.9058104157
-0.16678627 0.095108166 1.1468003 -0.6488858461 -0.2497582287 0.718726635
-0.30427638 0.29916251 1.25 0.0432135351 -0.7989035845 0.599904716
-0.17175654 0.22937807 1.2640001 -0.9319900274 0.2612652779 0.2512669861
-0.25496539 0.13434897 1.1185998 0.03282919154 -0.2946487069 0.9550415874
-0.34300196 -0.09058509 1.161 0.4062148035 0.3171475828 0.8569754362
-0.31449994 0.2037285 1.1468183 0.1495658904 -0.6711723804 0.7260562778
-0.42397881 0.10548754 1.1570001 0.5945695043 0.3327225447 0.7319718599
-0.29629806 0.10511212 1.1120002 0.1143405586 0.1851310581 0.9760392904
-0.29471985 0.035258576 1.1247143 0.02209360711 0.4658118188 0.8846079707
-0.31478685 0.24215676 1.1884286 0.1150167361 -0.7040530443 0.7007713318
-0.19643822 0.1332621 1.126 -0.463730514 -0.1609888673 0.8712270856
-0.34379548 -0.0070181293 1.1628827 -0.1890719086 0.4958862066 0.8475545049
-0.17173111 0.16761778 1.1730001 -0.9371551275 -0.1775524169 0.3003587127
-0.23772043 0.21052361 1.149 -0.1996087432 -0.7550524473 0.6245415211
-0.28504464 0.011118763 1.153 0.07721730322 0.6996974349 0.7102541924
-0.21445785 0.25460571 1.2050771 -0.2309007198 -0.7296131849 0.6436998248
-0.35544363 0.24078438 1.189 0.1781492978 -0.6842604876 0.7071424723
-0.15388864 0.17571284 1.3038182 -0.8077518344 -0.4565674663 0.3729385436
-0.23514163 0.16526918 1.115037 -0.4831239581 0.2077476978 0.8505481482
-0.27388161 -0.06741523 1.135 -0.1356704831 0.2423156351 0.9606646895
-0.23535499 0.31418404 1.2760768 -0.06449723989 -0.7980877161 0.5990793705
-0.10616785 0.17328544 1.3920001 -0.8675354123 0.1606033891 0.4707322419
-0.40699688 0.28611857 1.265 0.3676407933 -0.6933023334 0.6198162436
-0.17904952 0.038010515 1.141 -0.5285640359 0.3813830018 0.7583976984
-0.39820623 0.25867307 1.2243334 0.2635673285 -0.7078777552 0.6553177834
-0.43622467 0.17255722 1.1810001 0.6995379329 -0.1779772788 0.6920771599
-0.39561251 0.23269778 1.197 0.2377405316 -0.6549683213 0.7172837257
-0.32549015 0.063756302 1.1235453 0.03653744981 0.03963162005 0.9985461235
-0.16688928 0.037086505 1.322 0.3824862838 -0.5387157202 0.7506594658
-0.21502908 0.33190104 1.307 -0.1565508097 -0.8153668046 0.5573766828
-0.36264455 0.18389954 1.1380001 0.2712658346 -0.6151698232 0.7402573228
-0.20674182 -0.0042493497 1.1626667 -0.6731408238 0.4550441504 0.5829375982
-0.13424636 0.13482587 1.3867147 0.1075970456 -0.5521823764 0.8267511725
-0.26208651 0.24041794 1.177 -0.06972780824 -0.6951403618 0.7154843807
-0.14409284 0.1356815 1.2337779 -0.6779759526 -0.5581698418 0.478325218
-0.38160512 0.11085187 1.1190001 0.2400660515 -0.1120025739 0.9642736912
-0.15095454 0.2264351 1.3045001 -0.9622561336 0.05884522572 0.265707314
-0.14322542 0.03093669 1.307 0.3052360117 -0.506675899 0.806294322
-0.4063949 -0.0065646055 1.219 0.1669458449 -0.3376264572 0.9263570905
-0.22697163 -0.072264507 1.161 -0.6731907725 0.0918899253 0.7337372899
-0.37676853 0.3183251 1.2945001 0.2279542387 -0.8296749592 0.5095844865
-0.15367898 0.11482375 1.1943333 -0.8333722353 -0.435397774 0.3404694498
-0.25732559 -0.092259526 1.1421429 -0.2527537048 0.2537890673 0.9336523414
-0.13539678 0.17778187 1.3430001 -0.7067760229 -0.3735663891 0.6007627249
-0.39543918 0.014816237 1.1467394 0.249203071 0.5767652392 0.7779715657
-0.25291646 0.044256434 1.1187501 0.02809335291 0.2035259604 0.9786664248
