# .PCD v0.7 - Point Cloud Data file format
VERSION 0.7
FIELDS x y z normal_x normal_y normal_z
SIZE 4 4 4 4 4 4
TYPE F F F F F F
COUNT 1 1 1 1 1 1
WIDTH 206
HEIGHT 1
VIEWPOINT 0 0 0 1 0 0 0
POINTS 206
DATA ascii
-0.13135681 -0.048219591 1.138 0.3237079382 -0.6699688435 0.6680979729
-0.1001618 -0.27749744 1.8730001 -0.0349333249 0.8331352472 0.5519649386
-0.2656267 -0.047113162 1.5245001 0.926967442 0.2475038618 0.2819099426
0.044574119 0.048293374 1.4125001 -0.3454124033 0.7725684643 0.5327553749
-0.25144905 -0.24238782 1.2920001 0.8451470137 0.2218109071 0.4863398671
-0.36381841 -0.20077945 1.7220001 -0.05937276408 0.8171191216 0.5734032393
-0.18398251 0.14359801 1.396 0.7639830112 -0.3179934323 0.5614357591
-0.060704783 0.071742013 1.2590001 0.4124041498 -0.6233717799 0.664327085
-0.12592819 -0.22613198 1.1636667 -0.1592266411 0.7529140115 0.6385666132
-0.21762556 -0.065147921 1.2936666 0.8236971498 -0.3443181515 0.4505197406
-0.014830044 -0.075671941 1.2437999 0.3777596653 -0.7998411059 0.4664245248
-0.046169356 0.15136994 1.3740001 -0.6008481383 -0.6573765278 0.4547940791
-0.19777599 0.0049443999 1.41 0.5481914282 0.2031164765 0.8113136888
-0.2247389 -0.1551 1.2035385 0.7698206306 -0.05029950663 0.6362752318
-0.049362905 -0.13293773 1.115 -0.6025176048 0.32892555 0.7271729708
-0.020603858 -0.013539678 1.3430001 0.3813830316 -0.7569186687 0.530679822
-0.14368007 0.001950408 1.2360001 0.5665290952 -0.5171499848 0.6415611506
-0.12543447 0.053524755 1.3430003 0.4813966751 0.1653452367 0.8607660532
-0.26026216 0.051793467 1.4770001 0.8512197733 -0.1454165876 0.5042607188
-0.056872703 -0.0089579551 1.1882001 -0.4430114329 -0.603711009 0.6627774239
-0.19550544 -0.2709426 1.2120001 0.4936787188 0.5178090334 0.6986809969
-0.15519701 -0.13522987 1.1433337 0.5186365843 0.1789884418 0.8360497952
-0.0070378799 0.078589663 1.3380001 -0.7989113331 -0.39338395 0.4549612999
-0.12033039 0.18228267 1.3590001 0.2901321948 -0.3802043498 0.8782186508
-0.26225922 -0.15735553 1.273 0.8211974502 -0.3539657891 0.4475969374
-0.23751529 -0.042916339 1.454 0.797552228 0.1840431392 0.5744898319
-0.029177511 -0.067407779 1.1476668 -0.5663720369 -0.3648320436 0.738999486
-0.19194748 -0.078220583 1.174 0.7152201533 -0.1530315578 0.6819394827
-0.21800508 0.075990342 1.4210001 0.7918561697 -0.09235328436 0.6036842465
-0.083129041 0.11199329 1.317 0.6835774779 -0.3386221826 0.6465731859
-0.10488096 -0.17319177 1.1180772 -0.01622237451 0.3974345326 0.9174871445
-0.017322933 0.025987029 1.2350001 -0.1653908789 -0.7018297315 0.6928786635
-0.22501278 -0.215132 1.233143 0.6388579607 0.5120913386 0.5741280317
-0.14428002 0.1158971 1.3490003 0.3147197962 -0.0525434725 0.9477291703
-0.17849156 -0.19437075 1.1814445 0.6856637001 -0.08075504005 0.7234251499
-0.21829 -0.10587065 1.245 0.77049613 -0.5538051724 0.3156509101
-0.10485581 -0.10425572 1.1141739 0.4412919283 -0.2919360995 0.8485485911
-0.18430807 -0.043624979 1.244 0.7455224395 -0.2633247375 0.612255156
-0.17796947 0.055691127 1.381 0.6395785213 0.218702808 0.736958921
-0.25835398 -0.11324634 1.3136667 0.698379755 -0.5272596478 0.4840072393
-0.0079285735 -0.041908175 1.2920001 0.3374932408 -0.76591295 0.5472437143
-0.11565629 -0.014191383 1.1849999 -0.06340609491 -0.7925730944 0.6064714193
0.004845337 0.11514184 1.3825002 -0.4769876599 -0.7523608208 0.4543522298
-0.08727587 0.027491877 1.2324446 0.2870426774 -0.7729043961 0.5658845305
-0.013497161 0.055113401 1.2830001 -0.4312203526 -0.7058434486 0.5619911551
0.04188275 0.075388946 1.3650001 -0.8149836063 -0.08137592673 0.5737417936
-0.27119246 0.0092602298 1.5090001 0.9560785294 0.07994645089 0.2819971144
-0.074939646 -0.034874979 1.1451741 -0.4934383333 -0.3798395395 0.7824580073
-0.24095096 0.01135371 1.439 0.7555648685 0.04122843966 0.6537751555
-0.078232855 -0.20313685 1.149 -0.3914581537 0.6056507826 0.6927825212
-0.081953429 -0.25550187 1.8330001 -0.0349333249 0.8331352472 0.5519649386
-0.14527828 -0.18539749 1.1441669 0.6148219109 0.196130991 0.7638891339
-0.17280309 0.004028108 1.2749999 0.6557881832 -0.595793426 0.463650763
-0.1655381 -0.24739775 1.1820002 0.3890230656 0.4905948341 0.7797293067
-0.23029594 -0.26849669 1.245 0.8328137398 0.03203301877 0.5526257157
-0.076243706 0.16069826 1.3379999 -0.1475329399 -0.6845175624 0.713911593
-0.037521861 0.092668928 1.3050001 -0.6092785597 -0.6485562325 0.4562394321
-0.19770937 -0.12459414 1.1746002 0.7929147482 -0.03787225485 0.6081544757
-0.26926991 -0.20167542 1.2640001 0.822704196 0.3425103128 0.4537009299
-0.034157742 0.11661209 1.3436002 -0.6186748147 -0.6052438021 0.5009205341
-0.063813284 -0.082787223 1.123 -0.2030012906 -0.4614393413 0.8636342883
-0.089239404 0.068378247 1.322 0.7203521729 -0.1698800921 0.6724830866
-0.15501986 -0.084756404 1.1346318 0.5866984725 -0.1961656213 0.7856869698
-0.017973419 -0.097267918 1.2060001 -0.9940045476 0.05728313699 0.09313219786
-0.15706031 0.15706031 1.3649999 0.5443631411 -0.301404655 0.7828307748
-0.2472214 -0.17562789 1.2336001 0.7747364044 -0.05880463868 0.6295439005
-0.18215029 0.10615382 1.376 0.683593452 -0.04947453737 0.7281842232
-0.16612922 -0.04421819 1.1610001 0.3804163337 -0.3194091022 0.8679062128
-0.26026216 -0.016832877 1.4770001 0.8135136366 0.2789368033 0.5102840662
-0.15197454 0.02752295 1.365 0.577134788 0.2896122932 0.7635706663
-0.10870988 0.13500433 1.3430001 0.4175466895 -0.1289512217 0.8994589448
-0.052906774 0.025144843 1.2119334 -0.5904378891 -0.5126913786 0.6233223081
-0.028195178 -0.032722637 1.1738001 -0.3062782586 -0.6407855153 0.7039797902
-0.21387248 0.11535092 1.4225 0.8539735079 -0.1849266738 0.4863448739
-0.1142884 0.093721539 1.3376155 0.4222687185 -0.2343700826 0.8756482005
-0.15465672 0.0749458 1.357 0.5103463531 0.1456605196 0.8475432992
-0.20215808 -0.22416742 1.2037144 0.7906766534 0.1377010792 0.5965474844
-0.21796168 -0.018215818 1.4330001 0.500685215 0.2070261538 0.840508461
-0.066867754 -0.16295919 1.13 -0.6263047457 0.5105264187 0.58915627
-0.23942204 0.056160729 1.4450001 0.8176625967 -0.0834794268 0.5696130991
-0.12187859 0.032379683 1.245 0.4285823107 -0.7101280689 0.5586012602
-0.24431507 -0.12581781 1.2656 0.7952466011 -0.4826431572 0.3669310808
-0.021762373 -0.0015920266 1.2110001 -0.09882515669 -0.7115268707 0.6956745386
-0.095249444 -0.061553102 1.1304444 0.1467669755 -0.4197545648 0.8956927657
-0.071136236 0.091460876 1.2880001 0.7799135447 -0.3845354021 0.4938293397
-0.17795624 -0.15532725 1.1733638 0.5847871304 0.364308387 0.7247781754
-0.084351018 -0.0033078829 1.161 -0.3912869394 -0.5930284858 0.703712821
-0.11457123 -0.20482862 1.1364001 -0.0668643862 0.5749799609 0.8154307008
-0.084812231 -0.13761678 1.1120002 0.006322324276 0.1565866023 0.9876440167
-0.21650101 -0.1193383 1.2046667 0.8663182855 -0.2208995074 0.4479911327
-0.24130513 -0.078510761 1.317 0.680444777 -0.4712367654 0.5611869693
-0.12771606 -0.14507902 1.123 0.5746844411 0.02578101493 0.817968905
-0.20624827 -0.18632278 1.2019999 0.5240079761 0.2431133687 0.8162790537
-0.17891102 -0.10411205 1.153 0.7468150258 -0.1664414555 0.6438668966
-0.20185778 0.044310242 1.4040002 0.622533977 0.1892262399 0.7593713403
-0.23215054 -0.095786795 1.2855 0.7390115857 -0.5906124711 0.3240967989
-0.23676546 -0.22605376 1.2640001 0.6053521633 0.5103519559 0.6108106375
-0.26418349 0.018041801 1.47 0.8547389507 0.02199914679 0.518591702
-0.11411641 0.014612215 1.2149285 0.08340008557 -0.8001230955 0.5940096378
-0.056903806 0.13442494 1.317 -0.2734728158 -0.6182468534 0.7368741035
-0.06131319 0.054859169 1.2270001 -0.1539738029 -0.7429755926 0.6513673067
-0.091317981 0.052810401 1.2550001 0.2113249898 -0.8010225892 0.5600934029
-0.11110786 -0.028704695 1.1556667 0.4402730465 -0.72848171 0.5248562098
-0.21643288 -0.2458452 1.2246001 0.8282027841 0.02430862002 0.5599011183
-0.17799237 0.02458073 1.3920001 0.6317049861 0.2200658917 0.7433167696
-0.19835109 -0.065378293 1.2640001 0.8667824268 -0.2436852455 0.4350928068
-0.021588793 0.14379613 1.3940001 -0.6166732907 -0.7009887695 0.3582301736
-0.048517011 -0.14353785 1.1482002 -0.7383212447 0.4851711392 0.4684984088
-0.080801487 0.019938029 1.197 0.4588965178 -0.7735833526 0.4370157719
-0.20271091 0.095840357 1.3980001 0.7680898309 -0.02893421613 0.6396880746
-0.22494787 0.034991272 1.4254999 0.6920179725 0.09635128826 0.7154212594
-0.15563375 -0.21582159 1.1623334 0.5599582195 0.3448504508 0.7533425689
-0.077782251 0.17590755 1.365 -0.4146206677 -0.8015386462 0.4308428168
-0.024837369 -0.062420774 1.276 0.3814392388 -0.7693836093 0.5123991966
-0.12421083 -0.08483573 1.13208 -0.148716554 -0.1016537547 0.9836411476
-0.14176722 -0.018105211 1.169 0.02012129314 -0.6755603552 0.7370300889
-0.25574121 -0.040656295 1.4960001 0.8619425297 0.3622609377 0.3547140658
-0.23895012 -0.145965 1.2333335 0.8490204811 -0.3496576548 0.3961108029
0.013863022 0.092701949 1.3556668 -0.3008101583 -0.5502601266 0.7789268494
-0.13504797 -0.1143867 1.1330402 0.3515334725 0.06194127724 0.9341239333
-0.033344645 0.047433931 1.25 -0.4610810578 -0.6817786694 0.5679630637
-0.03724606 -0.093364999 1.1329999 -0.4650773406 -0.4236305654 0.7773289084
-0.02193683 -0.02886425 1.317 0.3251639009 -0.7956526875 0.5110824108
-0.017949751 0.13043486 1.365 -0.5873109698 -0.605568409 0.5369848609
-0.055329438 -0.056749128 1.1357144 -0.2470005155 -0.5463074446 0.8003367782
-0.22928779 0.089941613 1.4450001 0.8154590726 -0.1697685272 0.5533580184
-0.16985416 -0.012054167 1.25 0.6156579256 -0.5387599468 0.5750678182
-0.037494376 0.072191089 1.2767501 -0.5531765819 -0.6461032629 0.5258766413
-0.16654037 -0.2704955 1.21 0.2759275436 0.6563672423 0.7021723986
-0.016950173 0.10333411 1.3244001 -0.6430799365 -0.6948254108 0.3219718039
-0.12869589 -0.24429455 1.1858001 -0.1457129717 0.7437972426 0.6523292065
-0.12641621 0.15431087 1.3540001 0.3472876847 -0.2119113058 0.9135014415
-0.18057142 -0.22184488 1.177 0.5788286328 0.2131685466 0.7870937586
-0.15812349 -0.022589071 1.2270001 0.608294487 -0.4775618315 0.6339656711
-0.24429861 -0.015298183 1.4543998 0.8313499093 0.1898696274 0.5223091245
-0.01070936 0.10511526 1.3573335 -0.673487246 -0.5459737182 0.4983247817
-0.033481654 -0.091804534 1.2320001 0.3777596653 -0.7998411059 0.4664245248
-0.25030234 -0.20262574 1.2360001 0.5763834715 0.3761117756 0.7254805565
-0.054956775 0.1118086 1.2970001 -0.004459221382 -0.7274121046 0.6861863732
-0.24169409 -0.25388792 1.2646667 0.819329679 -0.02523676865 0.5727669597
-0.054994408 -0.034054231 1.1631335 -0.293666631 -0.651181519 0.699801743
-0.17333016 0.1348103 1.3730001 0.7195302844 -0.2115400285 0.6614582539
-0.20378074 -0.16312884 1.189 0.4373589158 0.3642296195 0.8222250342
-0.08274962 0.067871176 1.286 0.7557566762 -0.5344694257 0.3783837557
-0.23261094 -0.19200198 1.2190001 0.6024162173 0.3202854693 0.7311031818
-0.095891558 -0.0010537533 1.202 0.2437554598 -0.8140977025 0.5270941854
-0.16997427 -0.072264507 1.161 0.6684365273 -0.1924501657 0.7184396386
-0.16015911 -0.16015911 1.149 0.7493742704 0.140920803 0.6469772458
-0.075249597 -0.10456738 1.1147598 -0.1130233854 -0.2043371797 0.9723538756
-0.15915444 0.10171525 1.365 0.5537899733 0.009358375333 0.8326038122
-0.019292366 0.077171654 1.2945001 -0.4850557745 -0.7106047869 0.509668231
0.030266916 0.059323158 1.381 -0.3454124033 0.7725684643 0.5327553749
-0.24805108 -0.12119391 1.2920001 0.7367540598 -0.5378528237 0.4097655714
-0.19311285 0.075498611 1.3870001 0.6778510213 0.08948601782 0.7297329903
-0.084576666 0.13443239 1.3279998 0.4378672242 -0.2464403808 0.8646036386
-0.053891767 0.09403345 1.2674999 0.06142731756 -0.6864387393 0.7245885134
-0.10516351 0.16542105 1.3478004 0.270904839 -0.3908575773 0.8796823025
-0.25180146 0.035789039 1.4580001 0.809994638 -0.07979141176 0.5809836388
-0.16062111 -0.11073878 1.138 0.5026839972 0.1495168507 0.851442039
-0.16489828 -0.184148 1.1637499 0.7938482165 0.0833632648 0.6023749709
-0.19777599 0.1285544 1.4100001 0.7955470085 -0.290517658 0.5316995978
-0.096887857 0.11509054 1.3364618 0.5641776919 -0.1113885418 0.8181052208
-0.20292729 -0.098357618 1.1810001 0.7971791029 -0.1511730105 0.5845102668
-0.1510935 -0.058422819 1.149 0.4853674769 -0.5050401092 0.7136896253
-0.11226343 0.066692784 1.3280001 0.477234304 0.007771285716 0.8787417412
-0.085500419 -0.18482414 1.1357501 -0.3387860954 0.5660620332 0.7515302896
-0.21661425 -0.094021179 1.2655001 0.7510920167 -0.5847479701 0.3064810336
-0.26158243 -0.1799069 1.2590001 0.8616133332 -0.2048801482 0.4643776417
-0.12446026 -0.18366846 1.1256251 0.3178973198 0.3313946426 0.8883236647
-0.18384638 -0.25489733 1.1944286 0.427462101 0.4808176458 0.7655655146
-0.13444561 0.084914148 1.3452502 0.4396622181 -0.0529550612 0.8966007233
-0.17470063 -0.13333692 1.1558233 0.5686654449 0.3432902396 0.7475101352
-0.15485184 0.13564071 1.3563079 0.4856644273 -0.1930187196 0.852568984
-0.17705525 0.083878666 1.372182 0.6965305209 0.111759603 0.7087700963
-0.042122081 0.02916144 1.2320001 -0.442394644 -0.5694205165 0.6928544044
-0.037514023 -0.047878563 1.1565557 -0.4121532142 -0.536488831 0.7364166379
-0.21453397 -0.20482722 1.2129374 0.6666260958 0.3417539001 0.6624302864
-0.14098816 -0.039557829 1.1570001 0.2290911078 -0.628774941 0.7430742383
-0.057948545 0.15255842 1.3490001 -0.6969892383 -0.6399886012 0.323451072
0.050033119 0.06223632 1.3920001 -0.4260441959 0.7043272257 0.5678111315
-0.030330036 -0.01255036 1.1930001 -0.2048262358 -0.7402226925 0.6404034495
-0.27020884 0.035244629 1.489 0.9311085939 -0.06826170534 0.3582975864
-0.21520028 0.014857545 1.4214617 0.5876043439 0.1490945965 0.7952936292
-0.073327169 0.03507334 1.2122308 0.3927977383 -0.7876099944 0.474742502
-0.01731855 0.076201618 1.317 -0.8342579603 -0.3882339895 0.391520083
-0.081352033 0.08478944 1.307 0.8642736077 -0.2208863944 0.4519295394
-0.22211008 -0.23411602 1.245 0.8952553868 0.06698793173 0.4404888153
-0.11467403 -0.12445602 1.1163749 0.4876784086 -0.08239357173 0.8691266179
-0.046246268 0.0025360212 1.2044001 -0.3476537764 -0.668569684 0.6573822498
-0.16325726 0.047011252 1.3649999 0.6260952353 0.2366650105 0.7429632545
-0.14663985 -0.23918955 1.1730001 -0.004131513182 0.6299078465 0.7766588926
-0.094263501 0.094683982 1.3274547 0.6623317599 -0.1510992795 0.7338157892
-0.10841095 -0.045226648 1.138 0.01541136391 -0.4662033021 0.8845433593
-0.23102356 -0.12406147 1.245 0.8032417893 -0.4834552407 0.3479563892
-0.14793751 0.018629167 1.25 0.5636504292 -0.5798404217 0.5882884264
-0.089270093 -0.079460189 1.1190001 0.08002145588 -0.423712641 0.9022550583
-0.1356892 -0.20580798 1.1426367 0.3693372905 0.4402351677 0.8184027076
-0.25435647 -0.14476438 1.2567333 0.8179001212 -0.3962940574 0.417121619
-0.13539337 -0.16520342 1.1301737 0.5526515841 0.108439289 0.8263275027
-0.041142844 0.10604423 1.322 -0.6855291128 -0.6306934357 0.3636971712
-0.14329883 0.17411257 1.3649999 0.411319226 -0.3031614125 0.8595985174
-0.19650775 -0.20450649 1.195182 0.7004611492 -0.01136172563 0.7136000395
-0.13467228 -0.065996461 1.1260002 0.106169574 -0.2319609374 0.9669137001
-0.24911387 -0.034854218 1.4723333 0.8500728011 0.2650685012 0.455098778
-0.14309742 0.03902657 1.3490001 0.5181240439 0.2478766143 0.8185992241
-0.068243243 -0.016034525 1.1676668 -0.6866317987 -0.477401495 0.5482924581
