# .PCD v0.7 - Point Cloud Data file format
VERSION 0.7
FIELDS x y z normal_x normal_y normal_z
SIZE 4 4 4 4 4 4
TYPE F F F F F F
COUNT 1 1 1 1 1 1
WIDTH 206
HEIGHT 1
VIEWPOINT 0 0 0 1 0 0 0
POINTS 206
DATA ascii
-0.13650371 0.05630561 1.3340715 0.4254912734 -0.1348389089 0.8948606849
-0.35758793 -0.40795246 1.9150001 0.8984077573 0.2141735703 0.3833969235
-0.14536655 -0.29308647 1.182091 0.3687080145 0.4186894596 0.8299117684
0.054107867 0.039228205 1.5430001 -0.7290028334 -0.6585859656 -0.1865995228
-0.27459744 -0.064929441 1.5430001 0.8952348828 0.3081818819 0.3218359649
-0.016749969 -0.072591886 1.1432858 -0.4836162627 -0.5214456916 0.7030004859
-0.22187068 -0.12493038 1.2772857 0.8004802465 -0.4878079891 0.3482452333
0.042217642 0.064808026 1.3565001 -0.8144432306 -0.2871265113 0.5042228103
-0.15394862 -0.14418396 1.1366003 0.571739614 0.2312666029 0.7871655226
-0.24447916 0.045876592 1.4364288 0.8351338506 -0.1429314613 0.5311516523
0.0022539098 -0.054091647 1.2855 0.3017904758 -0.7579083443 0.5783575773
-0.13456015 -0.02634193 1.2181667 0.5080314875 -0.518397212 0.6878722906
-0.2528066 -0.25502282 1.2640001 0.463091135 0.740086019 0.4876671731
-0.048140395 -0.21863453 1.1440001 -0.3366735578 0.621137619 0.7076997757
-0.044685647 0.05710509 1.25 -0.3244692981 -0.6809697747 0.6565058231
-0.061252698 0.14532503 1.3700001 -0.6376909018 -0.7058819532 0.308352083
-0.21551359 -0.071007371 1.4210001 0.6160860658 0.2771711349 0.7373019457
-0.20571327 -0.20490877 1.193 0.5945974588 0.2091246992 0.7763509154
-0.15365623 0.15365621 1.34825 0.4058666825 -0.2994419634 0.8634852171
-0.064405091 -0.1355419 1.0965201 -0.0284183342 -0.05156540126 0.9982652068
-0.10579052 -0.062121302 1.1320001 0.3143882751 -0.6875747442 0.6545234919
-0.01174821 0.022191063 1.4890001 -0.7011269331 -0.6933133602 -0.1665460467
-0.053263403 -0.0042122663 1.1820666 -0.5550789237 -0.5273581743 0.643257916
-0.18545493 0.0040746671 1.3826367 0.511518836 0.2347829044 0.826574564
-0.2033387 0.09469381 1.3847501 0.7533066273 -0.1226598471 0.646129787
-0.012806348 -0.10778382 1.2173333 -0.00418438483 -0.8123508096 0.5831540823
-0.026655927 0.089239404 1.322 -0.5490587354 -0.7189247608 0.4262413383
-0.27062085 -0.018127713 1.4770001 0.8935403824 0.2021385878 0.4009059966
-0.13414909 -0.22429888 1.1465386 0.6343293786 0.1921802461 0.7487943769
-0.1787874 -0.081266999 1.2360001 0.8602191806 -0.2638813257 0.4363365471
-0.19835022 -0.27447382 1.223 0.828707695 0.04333127663 0.5580016971
-0.24605314 -0.087223947 1.485 0.8812479973 0.3001968563 0.3650805354
-0.091211028 0.10506587 1.317 0.4710934758 -0.2432322949 0.8478850126
-0.19623218 -0.13956621 1.197 0.8899407387 -0.2491290271 0.3820212483
-0.24121045 -0.18663795 1.245 0.8299406767 -0.2915909886 0.475576669
-0.0056498242 0.10371464 1.381 -0.5493729115 -0.6479421258 0.5275986791
-0.092358589 0.021480087 1.2250001 0.3754902184 -0.7315716743 0.5690430403
-0.086414784 0.046618503 1.2970001 0.7663993239 -0.3615454733 0.5309585333
0.043263499 0.0358469 1.4100001 -0.1798149794 -0.8562440872 -0.4842649996
-0.094686382 -0.18448648 1.1134399 0.4223730266 0.1920166165 0.8858502507
-0.0096494695 -0.0032164899 1.223 -0.3710057437 -0.596203506 0.7119663954
-0.097529337 -0.25780049 1.1810001 -0.4938378632 0.7200013995 0.4875676036
-0.23469946 -0.014980482 1.424 0.6843442917 0.1721169949 0.7085539103
-0.17397274 -0.029918879 1.2640001 0.7179712653 -0.5443632007 0.4338041246
-0.16217369 -0.088641524 1.149 0.682504952 -0.1325686276 0.7187576294
-0.10582542 -0.11596234 1.1253181 -0.01861207187 -0.03502140194 0.9992132187
-0.17299214 -0.2448677 1.1863334 0.7057355046 0.2421154678 0.6658208966
-0.0185472 -0.11518392 1.1135 -0.2923208475 -0.3842470646 0.8757297993
-0.098169312 -0.032722633 1.1738001 -0.06148658693 -0.8253121972 0.5613191724
-0.20358217 -0.077608667 1.2830001 0.8767305017 -0.2434288561 0.4148325622
-0.21496885 0.044265006 1.3948002 0.7245291471 -0.01262035593 0.6891286373
-0.14442317 0.007245149 1.3455715 0.3421129584 0.4397877753 0.8303887248
-0.16488419 -0.18461989 1.1656959 0.420347631 0.3636475503 0.8313052058
-0.15678555 0.10341173 1.3430003 0.4244902134 0.07731417567 0.902125597
-0.10537095 0.15220468 1.3355001 0.2340826988 -0.5130630732 0.8258156776
-0.23142992 -0.23250385 1.2250001 0.5569317937 0.4117948413 0.7212849259
-0.042771801 -0.1753777 1.11525 -0.2369670272 0.3648298681 0.9004142284
-0.065550685 -0.085120127 1.1160798 -0.02598861977 -0.4901687801 0.8712400198
-0.011618463 -0.029039584 1.325 0.2871926427 -0.7859578729 0.5475313663
-0.17830084 0.055045899 1.365 0.6780840158 0.04969253764 0.7333025932
-0.059612457 0.088856302 1.2830001 0.364107877 -0.7310087085 0.5771063566
-0.056194555 -0.045160387 1.1447501 -0.5558222532 -0.5432065725 0.6292759776
-0.25076523 -0.052189719 1.452 0.8528384566 0.2460024208 0.4605967104
-0.017915385 -0.032744378 1.1746 -0.08648150414 -0.6911329031 0.7175348401
-0.14192794 0.0011002166 1.2550001 0.5734863877 -0.6633850336 0.4806596339
-0.092128895 -0.2288363 1.13 0.07301517576 0.501298964 0.8621879816
0.0020376239 -0.082905114 1.2514286 0.2089678347 -0.7759745717 0.5951436162
-0.216712 -0.14302993 1.2360001 0.7970569134 -0.4811178446 0.365001291
-0.19734468 -0.034873802 1.4039999 0.5339489579 0.1534721106 0.8314715028
-0.045401324 0.024653547 1.2139167 -0.5396354795 -0.5730894804 0.6167349815
-0.01687145 0.061861984 1.2830001 -0.3763301969 -0.7479083538 0.5468168259
-0.05850932 0.13213412 1.3260001 -0.5887776613 -0.6259575486 0.5113883018
-0.17934583 0.12759094 1.3730001 0.7494550347 -0.2089054286 0.6282321811
-0.012054167 0.028491667 1.25 -0.4029816091 -0.694566071 0.5959730148
-0.13461612 -0.18507397 1.1342502 0.6797026396 0.2019939572 0.7051260471
0.0035472126 0.073873848 1.34825 -0.1067407578 -0.7330443859 0.6717531681
-0.26310518 0.0192516 1.4640001 0.899699688 -0.09505323321 0.4260344505
-0.10614078 0.027404603 1.3262857 0.4755937159 0.284635812 0.8323419094
-0.15699346 -0.0604637 1.21 0.6696791053 -0.3818201423 0.6369798183
-0.13262016 -0.26245099 1.1570001 0.2649679482 0.5105999112 0.8179729581
-0.034723274 0.11464266 1.3565001 -0.53819561 -0.6756130457 0.5038775206
-0.18077305 -0.11949405 1.1650001 0.7750637531 -0.1342540532 0.6174561381
-0.21755826 -0.27222487 1.2640001 0.5437929034 0.6069313884 0.5795891285
-0.26498741 -0.053519621 1.4890001 0.8562908173 0.369379878 0.3610049486
-0.1434966 -0.05672881 1.1420001 0.2155014426 -0.5273861885 0.8218411803
-0.13194592 -0.089170448 1.126 0.5560468435 -0.4384998083 0.7060664296
-0.21516323 -0.17510217 1.2129999 0.821195662 -0.2609168291 0.5075038075
-0.19281384 -0.11644128 1.2270001 0.7808060646 -0.46777758 0.4141570032
-0.11317249 -0.15477243 1.1245 0.4403646588 -0.06479073316 0.895478189
-0.088515282 -0.011591286 1.202 0.3616658449 -0.7091213465 0.6052641869
-0.011465923 -0.13029458 1.189 -0.9964321256 0.005888014566 0.08419232816
-0.11802826 0.087644756 1.3330001 0.436798811 -0.1280146986 0.8904038668
-0.083170451 0.035439324 1.2565833 0.6891312599 -0.6505971551 0.3190948069
-0.19836336 -0.23867249 1.21 0.4493765235 0.596305728 0.6651918888
-0.027966544 0.13010523 1.3870001 -0.6126454473 -0.6869832277 0.3907935321
-0.073897861 -0.016628487 1.1547143 0.2132240236 -0.7411059141 0.6366298199
-0.18079145 -0.29920459 1.2060001 0.6890274882 0.1713564694 0.7041861415
-0.066166237 -0.20376615 1.1177369 -0.2431060821 0.5793731213 0.7779628634
-0.18173441 -0.15416235 1.1646 0.7845876813 -0.02925742045 0.6193271875
-0.22243476 0.07367444 1.4107143 0.8284423947 -0.1217286512 0.5466857553
-0.21588933 0.0054156957 1.4040002 0.6079271436 0.1737540513 0.7747477293
-0.12433589 0.12433587 1.3379999 0.2590677738 -0.2077347189 0.9432550669
-0.1305979 -0.041133199 1.1730001 0.3382635713 -0.7713283896 0.5391013622
-0.1183237 0.00107567 1.2270001 0.5702385306 -0.604930222 0.5557764769
-0.15767726 -0.21577792 1.1730002 0.5829164386 0.06503337622 0.8099253774
-0.096424922 0.065596767 1.3220001 0.5419778228 -0.1677740961 0.8234754801
-0.17120248 -0.046593081 1.2360001 0.7038781643 -0.4893383384 0.5148820281
-0.027037863 -0.14478223 1.103476 -0.3049574494 -0.002740988508 0.9523620009
-0.18228267 0.091737032 1.3590001 0.6768054962 -0.06788919121 0.7330248356
-0.19762872 -0.17586081 1.1823335 0.753450036 -0.082182616 0.652348876
-0.23803604 -0.081466883 1.452 0.8258565664 0.3850733638 0.41192168
-0.25715703 -0.0054893941 1.4450001 0.8317545652 0.09441774338 0.5470554233
-0.23732506 -0.15184306 1.2830001 0.7959804535 -0.4625298083 0.3904884756
-0.077513285 -0.16406658 1.097 0.1932871491 0.1758163124 0.9652609229
-0.025184881 -0.0094443299 1.197 -0.3606583774 -0.7743320465 0.5199379325
-0.14918938 -0.11431909 1.13 0.7031203508 -0.1665664315 0.6912867427
0.035142235 0.044833962 1.3822 -0.1798149794 -0.8562440872 -0.4842649996
-0.24227764 0.014178038 1.427 0.7548938394 -0.05602548271 0.6534496546
-0.17271648 0.025129652 1.3649999 0.6728784442 0.3298309445 0.662152648
-0.23268662 -0.045036115 1.427 0.6921361685 0.2002771199 0.6934238672
-0.035610966 -0.086873174 1.1245002 -0.2551392615 -0.5448102355 0.7988026738
-0.22600116 -0.1084349 1.302 0.8039833307 -0.4209400415 0.4200241268
-0.20535401 -0.11593089 1.2541111 0.8119619489 -0.4985710084 0.3035534918
-0.20922001 -0.25281137 1.243 0.570532918 0.6756659746 0.4668700397
-0.092503294 -0.13541798 1.1063123 0.587302804 -0.1656492949 0.7922346592
-0.15541197 0.035320904 1.3430003 0.4962169826 0.2154459506 0.8410420418
-0.091138266 -0.090147629 1.13 0.05026655272 -0.08601721376 0.9950248003
-0.087607227 -0.041897826 1.1434 0.485078305 -0.624448359 0.6121791005
-0.26979241 -0.075754516 1.516 0.8967458606 0.3036291003 0.3219569027
-0.048354961 0.10707146 1.3132501 -0.6859152317 -0.5803810358 0.4389511943
-0.066963308 0.034561709 1.2320001 0.5942498446 -0.6935772896 0.4072070718
-0.048166696 -0.029719876 1.169 -0.5881422758 -0.5395334363 0.6024883986
-0.077705979 0.15305723 1.3430001 -0.3112166524 -0.8465908766 0.4317732453
-0.16298373 -0.0026326298 1.365 0.6654349566 0.2399140149 0.7068504691
-0.082163639 -0.1063398 1.1066152 0.4860607386 -0.3500491083 0.8007562757
-0.15409806 -0.26412827 1.1757501 0.5881652832 0.3006279171 0.7507892251
-0.066102423 0.052209713 1.2780001 0.8658058643 -0.366589874 0.3405760825
-0.081570826 0.075405851 1.2948571 0.8399808407 -0.08421737701 0.5360407233
-0.11505882 -0.20531623 1.1313999 0.4981384873 0.2378269434 0.8338443637
-0.04678027 -0.10652778 1.1076469 -0.2220980078 -0.3868204951 0.8950096965
-0.15541194 0.075351253 1.3430003 0.3407843113 -0.08788986504 0.9360242486
-0.22486165 -0.2049095 1.2134376 0.7910010815 -0.1038985997 0.6029281616
-0.19895452 0.064569421 1.381 0.6970351338 0.005387621 0.7170166969
-0.10878732 -0.25081521 1.149 0.07500424981 0.6549025774 0.7519820333
-0.070307791 0.01154307 1.197 0.4857474864 -0.7302886844 0.4803413153
-0.17527355 -0.2748245 1.1946472 0.6705396771 0.1738605648 0.7212136388
-0.08553461 0.13482721 1.3237649 0.07302200049 -0.4167632163 0.9060773849
-0.18263508 -0.20120814 1.177 0.3976388276 0.3242830634 0.8583261967
-0.026861066 -0.048685681 1.149 -0.2244395912 -0.645195365 0.7303079963
0.013163149 0.093937024 1.365 0.01317122113 -0.7529361248 0.6579617858
-0.15753262 -0.021465182 1.245 0.6901795864 -0.5707044005 0.4449142516
-0.20458138 -0.10509165 1.2780001 0.8582814932 -0.3647390008 0.3609962761
-0.19094414 -0.078364357 1.2590001 0.8853965998 -0.2226878256 0.408023268
-0.23197038 0.034733534 1.4150001 0.7745113969 0.01262235083 0.6324340105
-0.13047168 -0.13635761 1.1190001 0.1518275887 0.3054677248 0.940020144
-0.039520133 0.07339453 1.2880001 -0.6609475017 -0.6610483527 0.3551950157
-0.077269405 -0.061419271 1.13 0.0095439367 -0.3247871995 0.9457389712
-0.17796947 -0.020581502 1.381 0.5740099549 0.19044438 0.7963941097
-0.0162271 -0.088706389 1.2340001 0.05187270045 -0.8187990785 0.5717318654
-0.023818407 0.0210524 1.2270001 -0.4084937274 -0.6165240407 0.6730757952
-0.010004519 -0.067808412 1.268 0.2853565514 -0.7539097667 0.5917699337
-0.11489388 -0.051887561 1.153 0.2243955433 -0.7092009187 0.6683417559
-0.25011301 -0.18230459 1.268 0.7881070375 -0.4532771707 0.4164458513
-0.045121681 -0.06563779 1.1362002 -0.3101648688 -0.5569871664 0.7704303861
-0.11388777 -0.27643666 1.1810001 -0.4264624119 0.7307837009 0.5329962373
-0.16278249 -0.16367786 1.1485556 0.5091116428 0.4077201784 0.7580037117
-0.025486454 0.04903372 1.2640001 -0.5059489012 -0.6909363866 0.5163550973
-0.016740827 0.077236086 1.302 -0.2767212689 -0.8063976169 0.5226358175
-0.22597545 -0.16542467 1.2333335 0.8518657088 -0.3182953596 0.4159482121
-0.19734029 0.035109628 1.3810003 0.5918127298 0.1807343066 0.7855525613
0.0026647747 -0.038476024 1.3036667 0.3031273186 -0.7798214555 0.5477155447
-0.046356738 0.075638324 1.2650666 -0.4979441464 -0.6389473081 0.5863428712
-0.1620194 0.13127118 1.3490001 0.6167203188 -0.1929722428 0.7631629705
-0.21773018 -0.024192242 1.41 0.575722456 0.1333490312 0.8066980243
-0.12126842 0.020015176 1.3430001 0.2708473504 0.423155278 0.8646278381
-0.24955632 -0.027869234 1.4450001 0.7919902205 0.2325883508 0.5644946098
-0.2616061 -0.0399497 1.47 0.8660548329 0.2887532115 0.4081306458
-0.19248751 -0.09869644 1.2440001 0.8478403091 -0.36109218 0.3883029521
-0.18451743 -0.22443938 1.1880001 0.5283949971 0.3370614946 0.779222846
-0.07704585 -0.0058681145 1.1823335 0.6302099228 -0.6517490149 0.4219700396
-0.14719212 -0.19596839 1.1554614 0.7066563964 0.2345276028 0.6675578356
-0.056765921 0.13481906 1.3490001 -0.7008824348 -0.6539854407 0.2847224474
-0.12540841 0.15517896 1.3466669 0.1939492822 -0.3010433912 0.9336790442
-0.18294367 -0.25500962 1.2045001 0.789155364 0.152195245 0.595038116
-0.16332738 -0.12643433 1.1476668 0.7742235065 -0.1421767622 0.6167363524
-0.065783657 -0.1836447 1.1068 -0.1877208352 0.3753294051 0.9076831937
-0.042965434 0.036752496 1.2330002 -0.4615326822 -0.6545826197 0.5987563729
0.024342055 0.053881336 1.3478 -0.5724038482 -0.00454495009 0.8199592829
-0.074402981 0.095006987 1.3056666 0.5402215719 -0.4856593907 0.68723768
-0.22475393 -0.15289243 1.2546667 0.8646748662 -0.4088213146 0.2918947637
-0.15399911 -0.036122374 1.2257693 0.6091097593 -0.4630932808 0.6438399553
-0.042982966 0.0043735649 1.2042857 -0.679744184 -0.4482973218 0.5804975033
-0.14726926 -0.23558387 1.1610001 0.6318262219 0.09526433796 0.7692335844
0.0023284266 0.064031735 1.3280001 -0.5441479683 -0.7552248836 0.3654289842
-0.19649012 -0.014389742 1.3947694 0.5535593629 0.2085300386 0.8062798977
-0.042833757 0.10697104 1.335 -0.6480382681 -0.6627645493 0.3752192855
-0.25208989 0.026602451 1.4450001 0.8420935869 -0.1337333471 0.5224880576
-0.055016972 -0.15539882 1.101 -0.1591587365 0.1921824366 0.9683668613
-0.13509451 -0.15512389 1.1314001 0.4327907562 0.269403398 0.8602987528
-0.11314085 -0.078806199 1.1190001 0.2028378844 -0.3262120485 0.9232781529
-0.11545175 0.055068769 1.3266956 0.3611319065 -0.1080175042 0.9262375236
-0.23779583 -0.2465625 1.25 0.4153605103 0.7716526985 0.4816925824
-0.0094837798 -0.024236327 1.202 -0.3484846652 -0.7933694124 0.4991226494
-0.25518098 -0.096186996 1.5029999 0.8920487165 0.2772123516 0.3569346666
-0.23525263 -0.065416865 1.4350001 0.7180325985 0.2572228312 0.6467345953
-0.13563277 0.10528978 1.3371176 0.1809828132 0.0360984616 0.9828235507
