# .PCD v0.7 - Point Cloud Data file format
VERSION 0.7
FIELDS x y z normal_x normal_y normal_z
SIZE 4 4 4 4 4 4
TYPE F F F F F F
COUNT 1 1 1 1 1 1
WIDTH 206
HEIGHT 1
VIEWPOINT 0 0 0 1 0 0 0
POINTS 206
DATA ascii
-0.083896786 -0.13562867 1.2229998 0.03393628448 0.426689744 0.9037611485
-0.33806753 -0.24315079 2.0050001 0.8881582618 -0.4457264245 0.1118161157
-0.30301458 0.083637506 1.5640001 0.7685456276 -0.6389275789 0.03330416232
0.13216309 0.15413849 1.4743751 0.8692645431 -0.4098831713 0.276360184
-0.14440863 0.17427754 1.2936667 0.190960139 -0.8025744557 0.5651623011
0.076108985 0.026619399 1.2830001 -0.6700510979 -0.5567641854 0.4909634888
-0.24147749 -0.005411488 1.2352002 0.7207452655 -0.004089915194 0.693187952
-0.064155705 0.064155705 1.1616399 -0.1278533489 0.108714141 0.9858167768
0.0048251734 0.2316083 1.376 -0.2337810248 -0.8331474066 0.5012103915
0.054115437 -0.12399901 1.2933636 -0.02683274634 -0.7669180036 0.6411838531
0.0033076634 0.15152176 1.2570001 -0.5918349028 -0.620126307 0.5149512887
-0.20716071 0.21708459 1.4150001 0.3046832681 -0.8590875864 0.4112621844
0.017421996 -0.057390105 1.169 -0.3883907795 0.3241253197 0.8626096249
-0.21367039 -0.13410681 1.267238 0.4567748606 -0.3816961944 0.80353266
0.1140407 0.035904367 1.4122223 -0.0684331581 -0.4291857779 0.9006200433
-0.13531615 -0.034539789 1.1730002 0.1966254711 -0.1230555773 0.9727259278
-0.17127612 0.09198162 1.2060001 0.3507021964 -0.6652897596 0.6590883732
0.06368348 0.12587114 1.3577502 -0.8190823793 0.02417526953 0.5731662512
0.046039611 -0.045238923 1.3700002 0.3724841774 -0.6246058941 0.6863840222
-0.10445878 0.2326007 1.3855001 0.1501729786 -0.9313951135 0.3315890133
0.02325972 0.070836417 1.2060001 -0.8692019582 -0.3099080026 0.3852856159
-0.23263769 0.136217 1.2970001 0.5005490184 -0.68551898 0.5286912322
-0.087129273 0.13015607 1.2270001 0.09177823365 -0.7297905087 0.6774824858
-0.055364568 0.19839866 1.3157501 -0.0001035194655 -0.844340384 0.5358071327
0.0053432835 -0.13571939 1.219 -0.4745010734 0.2687773108 0.8382168412
0.02648936 -0.047460102 1.2590001 0.1664990187 -0.5759264827 0.8003666401
0.071007371 0.1955817 1.4210001 -0.8430830836 -0.4635375142 0.2726607025
-0.15805423 -0.17714803 1.21 0.8413555622 0.4588106275 0.2856809199
-0.20568211 -0.075811669 1.2044002 0.6058765054 0.4058458507 0.6842534542
-0.063034967 -0.072532132 1.1682726 0.1153462976 0.5680360794 0.8148804903
0.077767521 0.10746793 1.4354001 -0.3872382343 -0.759272933 0.5230212212
-0.22902916 0.069037497 1.25 0.7780204415 -0.2299599648 0.584638834
-0.086122639 -0.19204064 1.1730002 -0.003341839416 0.5493901372 0.8355593085
-0.01131163 0.01131163 1.1730001 -0.4995940924 0.1598469615 0.8513839841
-0.2045188 0.18517847 1.3454001 0.404388994 -0.8125087023 0.4198798835
-0.19075127 0.021889489 1.189 0.3811107576 -0.5436062217 0.7478280663
0.033228297 0.081352033 1.307 -0.9680564404 -0.2154889256 0.128184393
0.025188973 0.18431371 1.326 -0.5639256239 -0.6392633319 0.5228099823
0.043115273 0.0047913487 1.21425 -0.8430295587 -0.358717829 0.400777638
-0.12468042 0.035036858 1.1754001 0.1385730952 -0.1116086915 0.9840431809
-0.14478695 -0.10462876 1.2055198 -0.05134370923 0.4778139591 0.8769593239
-0.024276655 0.11779629 1.2040002 -0.07958647609 -0.7475088239 0.6594668627
-0.074453175 -0.0051040589 1.1634002 0.07758612186 0.2990324795 0.9510836005
-0.34519538 -0.19749984 1.9590001 0.981588304 -0.07781159133 0.1744414121
-0.042024914 -0.14614412 1.1740001 -0.3867886662 -0.109222196 0.9156773686
-0.18211435 0.13134308 1.2590001 0.2743506432 -0.7000901103 0.6592462063
0.078067169 0.066056833 1.3700002 -0.7327501774 -0.1983873099 0.6509375572
-0.14492001 0.20776357 1.344 0.08253850788 -0.8192401528 0.5674794912
-0.055213343 0.16453806 1.266 0.05565534905 -0.8325412869 0.5511601567
0.095619626 -0.0062407521 1.3743639 0.4831064939 -0.6038662791 0.633998096
0.072181225 -0.078002296 1.3280001 0.2621780932 -0.5756002069 0.7745624781
-0.11482339 0.091390528 1.1880001 0.1307209581 -0.7122765183 0.6896188855
-0.051455949 0.22856015 1.365 0.02174102701 -0.8774805665 0.4791191518
0.086558565 0.12983784 1.4960001 -0.3238338828 -0.6880594492 0.6493888497
0.058850631 0.17895396 1.3700001 -0.8320881724 -0.3068079352 0.462058574
-0.11733087 -0.17190337 1.245 0.03662440926 0.5441289544 0.8382018209
0.03549711 -0.088204943 1.2270001 0.2061905563 -0.5221335888 0.8275638819
0.036013309 0.13548373 1.2947272 -0.9062259197 -0.07997472584 0.415160954
0.084927961 0.14831622 1.404 -0.8694847822 -0.2301210165 0.4370819032
-0.17851739 -0.17080535 1.2570001 0.6246680021 0.3477508426 0.6991847157
-0.015543615 -0.094319746 1.1822798 -0.3759156168 0.4619759321 0.8032842875
-0.20456961 -0.024645435 1.2048888 0.537285924 -0.1496903598 0.8300100565
0.023779333 0.10801722 1.2410001 -0.5883302689 -0.593806088 0.5488732457
-0.025350569 -0.035489675 1.1566797 -0.01783948764 -0.02916880511 0.9994152784
-0.13206545 0.14079705 1.245 0.2012746632 -0.7587521076 0.6195027828
-0.01712849 0.062735669 1.177 -0.3074319959 -0.2636750638 0.9143090248
0.038200751 0.04474945 1.245 -0.8518925309 -0.3987443447 0.3395320475
0.1208371 0.088447779 1.4210001 0.2082757056 -0.6613853574 0.7205488682
-0.10405365 0.19340461 1.315125 0.1134169251 -0.8401046395 0.5304345489
-0.16171958 0.2225164 1.3870001 0.2654748857 -0.9143652916 0.3057109416
-0.014298169 0.18611589 1.2945 -0.2091574967 -0.8186322451 0.5348779559
-0.12657873 -0.16677968 1.1758001 0.5006324649 0.3337675035 0.7987279892
-0.19441673 0.16393384 1.3040001 0.3238965571 -0.7311092019 0.6004751325
-0.16447476 -0.071609467 1.177 0.222194314 0.3605326414 0.9058951139
-0.11495827 -0.076113626 1.1824737 0.01803754829 0.666469574 0.745314002
-0.17597944 -0.13413 1.2240001 0.7936673164 0.1811661273 0.5807504058
-0.21944807 -0.098922193 1.2970001 0.4435974956 -0.4230406582 0.7900999188
-0.016896246 0.21297477 1.3358573 -0.2192062736 -0.8032254577 0.5538749695
-0.22381963 0.033980101 1.2165715 0.5041760206 -0.4982849658 0.7053499818
0.11165928 0.10395864 1.4640001 0.3186435997 -0.8907445073 0.3240994215
-0.062541395 0.1011086 1.189 0.1391697526 -0.7084825039 0.691870153
-0.098579705 0.1677715 1.273 0.1418095976 -0.7892787457 0.5974354148
0.027493821 -0.014972455 1.1748464 -0.6636390686 -0.1601823419 0.7307015657
0.043982804 0.22294641 1.3935001 -0.664560914 -0.6775598526 0.3150737286
-0.16303019 0.055719182 1.177 0.4345696568 0.1313673854 0.8910060525
-0.15425973 0.0044382289 1.1682383 0.2143154889 -0.02361243963 0.9764790535
-0.073718242 -0.10257591 1.197 0.265691787 0.6093087792 0.74709481
0.077050231 0.0078286333 1.4100002 0.6131993532 -0.5160404444 0.5980709791
-0.044320758 0.021153091 1.149 0.006026601885 -0.1400400996 0.9901275039
-0.058322877 -0.16740827 1.2320001 0.1817824244 0.3456127942 0.9206014276
0.084277473 -0.041545235 1.3540001 0.3402440846 -0.6258271933 0.7018364072
-0.1248977 -0.1359023 1.22425 -0.1579084694 0.5243731737 0.8367183805
-0.084926642 0.21586205 1.3455001 0.07189460099 -0.861856699 0.5020300746
-0.21649197 0.10769762 1.251 0.4110553861 -0.6372805238 0.6518489122
-0.095032781 -0.044962306 1.1656003 0.1749756187 0.007451125421 0.9845445752
-0.045362242 0.13824682 1.2320002 0.0510561876 -0.7504479885 0.6589545012
0.061703306 0.061703306 1.3280001 -0.4933893681 -0.7835285664 0.3776902854
0.025204167 -0.15232083 1.25 -0.6686445475 0.632045567 0.3917051554
0.015492161 0.033427007 1.1956668 -0.8522080183 -0.1344944835 0.5056210756
0.045575269 0.15074897 1.3330001 -0.8899133801 -0.1668605357 0.4245135784
-0.21307909 0.19855097 1.381 0.3626663089 -0.833935678 0.4159620702
-0.13392733 0.11395033 1.2168182 0.2118075341 -0.7424135804 0.6355781555
0.06252715 0.0093244463 1.25125 -0.7257068753 -0.478489399 0.4943656921
0.039366715 0.05061435 1.2830001 -0.4246409535 -0.8194933534 0.3848514855
-0.20456827 0.074282698 1.2134707 0.6369991302 -0.397146523 0.6606865525
-0.045625106 -0.13687424 1.2103077 0.465192467 0.486389488 0.7396088243
0.05043814 0.097357333 1.3379999 -0.8104079962 0.06065980718 0.5827171803
-0.1051534 0.064316176 1.1645204 0.2151188254 -0.06829994172 0.9741966128
-0.0010721633 -0.099711187 1.223 -0.7607122064 -0.142730698 0.6332021356
-0.17523038 -0.034557469 1.1851737 0.3325738311 -0.1756363362 0.9265778661
0.026381794 0.20558229 1.3555001 -0.4093476534 -0.7101873159 0.5727726221
-0.11559039 -0.0049479068 1.1668336 0.06137922779 0.3605892956 0.9307029247
0.045247838 -0.10152283 1.3235 0.1661334634 -0.6708406806 0.722753346
0.064676963 -0.020745439 1.3920001 0.5225086808 -0.6267943978 0.5780255198
0.10172314 0.068632483 1.3980001 -0.8742752075 -0.06888094544 0.4805188179
-0.17507815 0.18605848 1.324182 0.2505252361 -0.7939501405 0.5539677739
-0.084862523 0.035231557 1.166273 0.1592771411 -0.2833246291 0.9457049966
0.0091319447 -0.077073611 1.25 0.1471300423 -0.5433350205 0.8265227079
-0.16462398 0.11330942 1.234286 0.3159579337 -0.7591792345 0.5690496564
-0.23118858 -0.052859139 1.2108001 0.7189526558 0.1710968316 0.6736712456
0.12362928 0.12489081 1.439 0.7838413715 -0.416346401 0.460704267
0.01870741 0.16552848 1.2932501 -0.6942293048 -0.5191210508 0.4985569119
-0.061872505 -0.039557829 1.1570001 0.1033706143 -0.05281037465 0.9932399392
0.00107567 0.13015607 1.2270001 -0.6974378824 -0.5147040486 0.4986583889
-0.22242646 0.16339596 1.3256 0.4532524347 -0.7275633216 0.5149891973
-0.10516744 -0.10728896 1.21 0.04557746649 0.5120714903 0.8577327728
-0.18308744 0.2034305 1.365 0.4153532386 -0.8341238499 0.3629312813
-0.0094127702 -0.15165018 1.1930001 -0.797980547 0.0259002801 0.6021264195
-0.18493083 -0.10190247 1.2054287 0.2952412665 0.5121817589 0.8065372705
-0.16396838 0.15318078 1.2770909 0.3475936949 -0.7360835075 0.5808266997
-0.042736623 -0.11153216 1.189 0.2626611292 0.4635512233 0.8462442756
0.084065318 0.12385195 1.4640001 -0.5188388228 -0.7473048568 0.4151406288
-0.1605536 -0.14376369 1.197 0.6619855165 -0.2804411054 0.6950740814
-0.03496322 0.089464709 1.1730001 -0.1455538273 -0.4938639104 0.8572704196
-0.055287533 -0.18286595 1.1760001 -0.29493469 0.3160889745 0.9017212987
-0.21725291 0.0047427667 1.2030001 0.7276348472 0.2466149926 0.6401004195
-0.0015929034 0.097219698 1.2120001 -0.7560338974 -0.4093934894 0.5106952786
-0.07452368 0.18179262 1.2880001 0.02951920033 -0.8261973262 0.5626069307
0.048487555 -0.068592153 1.3490001 0.3654333651 -0.5825811625 0.7259873748
-0.11513965 0.21722221 1.3540001 0.1324302554 -0.866992712 0.480401814
-0.13596223 -0.19139299 1.1930001 0.5540192723 0.4374999106 0.7082771063
-0.15099145 -0.15617572 1.2320001 -0.2401756048 0.534258306 0.8104836345
-0.24261136 0.038078018 1.2410001 0.7350122333 -0.3887418211 0.5555509329
-0.01528763 -0.064230613 1.1629199 -0.2905510962 0.375131458 0.880259335
-0.024826029 0.17007683 1.268 -0.1349873245 -0.7937448621 0.593083024
0.041625008 -0.03113131 1.197 -0.8381865621 -0.06667313725 0.5412929058
-0.13508517 0.06758932 1.1730002 0.1873885542 -0.3398593068 0.9216187596
-0.077804163 0.14793751 1.25 0.1294208467 -0.7472168207 0.6518567801
-0.03575702 -0.005107705 1.1653204 -0.1268101186 0.0671787113 0.9896495342
-0.1865219 -0.13516454 1.2535455 0.732141614 -0.111979574 0.6718848348
-0.13600835 0.19188955 1.317 0.1266567558 -0.8314121962 0.5410284996
-0.086158693 0.085131675 1.1752501 0.1424064338 -0.7009672523 0.6988313794
-0.18820971 0.05521743 1.1934444 0.599622488 0.01356877387 0.8001679182
0.074477218 0.044686329 1.307 -0.4786221385 -0.7804687619 0.4022305012
0.041291878 -0.14173158 1.273 -0.8362900019 -0.2832859457 0.4694338441
0.022197783 0.12430608 1.266 -0.83570683 -0.3366914392 0.4338582754
-0.20508729 0.14488506 1.2836251 0.3259849846 -0.7547689676 0.5692605972
-0.19039358 0.10003731 1.2270001 0.4055171013 -0.6669524908 0.6250842214
-0.045165867 0.18179262 1.2880001 0.05760752782 -0.8356211782 0.5462770462
0.031092737 -0.12222662 1.223 0.0429623723 -0.06255573779 0.9971163273
0.0025620584 0.042530168 1.169 -0.488312602 -0.280325681 0.8264189363
-0.18556841 -0.0072595412 1.1825384 0.3692997396 0.3729249239 0.8512019515
-0.094656698 0.11186592 1.2054287 0.1201257855 -0.7709721327 0.6254372597
0.040545832 -0.071229167 1.25 0.1819237322 -0.5771307945 0.7961304784
-0.13510485 0.22557685 1.376 0.1167512164 -0.9416136146 0.3158052266
-0.024073267 0.23351333 1.3730001 -0.0357645154 -0.885650456 0.4629731476
0.070292011 0.096502587 1.3590001 -0.7529918551 -0.07795971632 0.6533954144
-0.056220632 0.11986663 1.21 0.07940269262 -0.8078430295 0.5840246677
-0.11593951 0.17764878 1.294 0.1479693651 -0.8201425076 0.5526945591
0.10497732 0.014440103 1.3956001 0.1434232742 -0.5701699257 0.8089103699
0.031833146 0.044928543 1.2161429 -0.8738842607 -0.2761358619 0.4000941217
-0.12566122 0.15914111 1.273 0.1394208819 -0.7718782425 0.6202949286
-0.0051079858 -0.015320591 1.1653204 -0.1584177017 -0.2936726213 0.9426877499
0.036115862 0.11294834 1.312 -0.8994873762 0.1570943743 0.4077300727
-0.045028817 0.044006914 1.1673332 0.05360745639 -0.4429259598 0.8949540854
-0.14166495 0.09234456 1.197 0.261059761 -0.7141844034 0.6494523883
-0.22415869 0.11897741 1.2763335 0.4718203247 -0.658968389 0.5857868195
-0.34419775 -0.21839958 1.9930001 0.9514155388 -0.2744421065 0.1396065056
-0.0094443299 -0.11752944 1.197 -0.7366985679 0.2671622932 0.6212081313
-0.0093496498 0.098690748 1.1850001 -0.645313561 -0.3947473466 0.6540220976
-0.19412653 -0.055344179 1.1889998 0.4527976513 0.01076107938 0.8915483356
-0.086968839 -0.079721436 1.1810001 0.113198027 0.7014378309 0.703684032
-0.076963447 0.23573303 1.3825001 0.1127221286 -0.9014320374 0.4179880023
0.0362265 0.071284398 1.3330001 -0.8138631582 -0.3897159696 0.4309851825
-0.025103349 0.15171155 1.245 -0.08898314089 -0.7897854447 0.6068945527
-0.085324213 -0.17280853 1.2320002 0.1582785845 0.3811239898 0.9108745456
0.055522222 0.034795482 1.2666668 -0.6746990681 -0.5707229972 0.4680346847
-0.093731053 -0.16849384 1.1610001 0.0641085282 0.3504698575 0.9343773127
0.087142132 0.12686272 1.3870001 -0.8376945257 -0.178544119 0.5161296725
-0.1052 0.14720695 1.25 0.1256756783 -0.7629508376 0.6341227293
0.051644433 0.2053767 1.3700002 -0.7007908821 -0.5820551515 0.4124365449
-0.0039601955 -0.1576878 1.2320002 -0.6237415671 0.4553821087 0.6352744699
0.045027837 0.18496275 1.3476667 -0.7020846605 -0.4390578866 0.5606293678
0.06223632 0.19403088 1.3920001 -0.8235824704 -0.4824952781 0.2981781662
-0.043738652 0.21282691 1.3363334 0.02497734129 -0.82967484 0.5576878786
-0.24202575 -0.03442144 1.2270001 0.6233172417 -0.2190826088 0.7506519556
-0.21636429 0.086929999 1.2335387 0.6318082809 -0.378952533 0.6761754751
-0.18339516 0.22032036 1.404 0.2861188352 -0.872913301 0.3951687813
-0.025374239 0.19839865 1.31575 -0.09499458969 -0.8392383456 0.5354017615
0.1095395 0.141757 1.47 0.6828259826 -0.7169806361 0.1403119415
-0.14461878 -0.085318424 1.1867999 0.002917551436 0.6376265883 0.770340085
-0.15534897 -0.017973129 1.1826667 0.2245692015 0.3053589463 0.9253780842
-0.22265711 -0.073501922 1.2240001 0.686591208 0.3774681687 0.6213777661
-0.15633684 0.026918925 1.1810001 0.3066629171 -0.3819303513 0.8718297482
0.061952278 0.15567496 1.3590001 -0.8003629446 -0.2031010687 0.5640648007
0.016121775 0.0072474033 1.181 -0.4800723493 -0.4282041788 0.7656185031
