# .PCD v0.7 - Point Cloud Data file format
VERSION 0.7
FIELDS x y z normal_x normal_y normal_z
SIZE 4 4 4 4 4 4
TYPE F F F F F F
COUNT 1 1 1 1 1 1
WIDTH 206
HEIGHT 1
VIEWPOINT 0 0 0 1 0 0 0
POINTS 206
DATA ascii
-0.10518857 -0.14490165 1.1231247 0.2298421413 0.07104264945 0.9706315398
-0.35583898 -0.37165406 1.8040001 -0.2419953495 0.7615858316 0.6011865735
-0.27245048 -0.051832039 1.516 0.8978973031 0.3063359857 0.3161309063
0.0046209102 -0.21333201 1.7570001 -0.2362433225 0.7793781757 0.5803092122
0.053501211 0.041341849 1.3870001 -0.1403996795 0.7939898968 0.591496408
-0.17674652 0.11542676 1.3715 0.7701793313 -0.2738378644 0.5760526061
-0.22607742 -0.27556702 1.2830001 0.7026996613 0.6510012746 0.2870722413
-0.044503044 0.025245756 1.2123127 -0.3191334605 -0.8025847077 0.5039955974
-0.31043205 -0.19492245 1.6470001 0.9146931767 0.09112430364 0.3937419653
-0.19570881 -0.079858199 1.2830001 0.8613198996 -0.2961014807 0.412858218
-0.11715335 -0.28893209 1.1756667 -0.1771764755 0.6280598044 0.7577264905
0.0051453956 -0.11479647 1.2176362 0.5210056901 -0.697445333 0.4920600653
-0.044351973 0.11494467 1.3244001 -0.6901767254 -0.6257885695 0.3633796275
-0.20695697 -0.014945914 1.4040002 0.5682925582 0.1492893547 0.8091700673
-0.20370197 -0.18832642 1.1956667 0.7995209098 -0.183441475 0.5719401836
-0.11417053 0.016687058 1.3279998 0.4706402719 0.3113891184 0.8255510926
-0.064502522 -0.044650592 1.13192 0.06306610256 -0.5177297592 0.8532165885
-0.34389618 -0.27181312 1.7130001 0.9196923375 0.08420235664 0.3835048974
-0.12753339 -0.042985599 1.2156669 0.5411564112 -0.5300278068 0.6528554559
-0.045575127 -0.22537892 1.1314737 -0.2715864182 0.5471875668 0.7917238474
-0.0079603083 -0.12678792 1.1074001 -0.4294161797 -0.3021489978 0.8510627151
0.00679592 -0.048704091 1.2920001 -0.9981363416 -0.0603781566 0.008853130974
-0.23435491 -0.089941613 1.4450001 0.8656805754 0.2671069801 0.4233804345
0.0027422931 -0.03527651 1.1868184 -0.386591047 -0.635238409 0.6685951948
-0.18594925 -0.26485026 1.214 0.7746071815 0.1677948236 0.6097775102
-0.15008621 -0.083605066 1.149 0.5665229559 -0.2054783553 0.7980165482
-0.0056345314 0.057465203 1.2852224 -0.4882261157 -0.7113028169 0.5056516528
-0.00122032 0.098845921 1.3920001 -0.6860558391 -0.6260898709 0.3705925643
-0.22301137 -0.15244463 1.2656 0.8139945865 -0.399730891 0.4214594066
-0.22204651 0.062024169 1.4150001 0.7855764627 -0.1289205402 0.6051852107
-0.13378645 -0.21516599 1.1549999 0.7026661634 0.1104124412 0.7029007077
-0.26310518 0.0038503197 1.4640001 0.8902748227 -0.02750608884 0.4545922875
-0.11608771 0.1547298 1.347286 0.2306331396 -0.3763182461 0.8973254561
-0.17868717 -0.12398434 1.2156668 0.7416997552 -0.5401564837 0.3976334929
-0.17693326 0.036412351 1.3649999 0.7184530497 0.1798068732 0.6719335914
-0.07380262 0.042488962 1.2755001 0.7926325202 -0.4792664647 0.3768783808
-0.12479655 0.085652232 1.3336524 0.4102310538 -0.1067089438 0.9057171941
-0.23128045 -0.10491713 1.3346667 0.8235650063 -0.404717505 0.3974222541
-0.23779583 -0.21478334 1.25 0.8582569957 -0.1678909659 0.4849819839
-0.16687 -0.15492013 1.155 0.7746025324 -0.007700534537 0.6324014664
-0.058663905 -0.17406829 1.097 -0.07619124651 0.2071418613 0.9753394723
0.015305723 0.057690803 1.3430001 -0.428651005 -0.4592039585 0.7780681252
-0.012875604 -0.074407764 1.1434615 -0.3468208909 -0.6098875403 0.7125675082
-0.075215228 -0.025709599 1.1877694 0.2334456295 -0.7752048969 0.5869927406
-0.065022826 -0.10523116 1.1057775 0.2991173267 -0.4175886214 0.8579909801
-0.25748983 -0.10360797 1.4959999 0.8621655703 0.0787223354 0.5004730821
-0.15210079 -0.01389955 1.3590001 0.3906569481 0.4218141437 0.8182053566
-0.20712301 -0.079662703 1.3980001 0.6281070709 0.04248148203 0.776966393
-0.10638525 0.0054002665 1.2320001 0.4788679779 -0.6599903703 0.5788766146
0.0010958334 0.016437501 1.25 -0.5344734192 -0.6454315186 0.5456705093
-0.092781141 -0.25040931 1.138 0.09041707218 0.6294897795 0.771730125
-0.16956837 -0.072363578 1.2320001 0.8155146837 -0.1583031267 0.5566649437
-0.045739204 0.13420978 1.373 -0.6173819304 -0.7015624642 0.3558787704
-0.11094129 -0.051908311 1.161 0.03035566397 -0.7284027934 0.6844763756
-0.24095096 -0.035322655 1.439 0.7903751135 0.1818067282 0.5850243568
-0.077713199 0.07502725 1.3132502 0.6781442761 -0.1173981205 0.7254915833
-0.15291496 -0.026247399 1.2548572 0.6292316318 -0.6297528148 0.4554985464
-0.15770173 -0.25496346 1.1745386 0.6661996245 0.1908815205 0.72093153
-0.093030594 -0.20497553 1.1187145 0.4231815338 0.2315804809 0.8759496808
-0.11418424 -0.095476002 1.1175454 0.2730518878 -0.3111514747 0.9102897644
-0.044689562 0.084299393 1.2768461 -0.1250096709 -0.7011443377 0.7019752264
-0.16264552 -0.30235273 1.1952224 0.5416980386 0.4098039567 0.7339100242
0.0065250308 -0.084536567 1.2546 0.5627555847 -0.6798722148 0.4701913893
-0.23621808 0.015325009 1.4242729 0.7877181172 -0.07869704813 0.6109884977
-0.033970833 0.049312498 1.25 -0.3700341284 -0.7020218372 0.608473599
-0.037520051 -0.037209578 1.1665384 -0.5076047182 -0.5176098347 0.6887797713
-0.19443901 -0.11514121 1.2562222 0.7957695723 -0.4209522307 0.4353733957
-0.1962368 0.075104691 1.3817501 0.7763190269 -0.1197517887 0.6188604236
-0.21689786 -0.11734476 1.2953334 0.7902111411 -0.4484290183 0.4177053869
-0.20771915 -0.15538545 1.2245002 0.8016812801 -0.4456014037 0.398430109
-0.25284141 -0.064666659 1.4752501 0.8649473786 0.3547252417 0.3550155461
-0.075304404 0.14554001 1.3352224 -0.1384256333 -0.6724966764 0.7270396352
-0.14493899 -0.12507594 1.1323637 0.717226088 -0.1021785364 0.6893085837
-0.22481503 -0.25063109 1.2270001 0.6188881993 0.469178915 0.629959166
-0.16385902 0.074768066 1.3490001 0.5690746307 0.001786652836 0.8222839236
-0.14427654 0.12433589 1.3380002 0.3069650829 -0.1363642216 0.9419008493
-0.014668776 -0.0048472844 1.2147777 -0.3720760942 -0.6814045906 0.6302754879
-0.01390744 0.079967782 1.322 -0.6006314754 -0.6926203966 0.3993980289
-0.18449712 -0.22514908 1.1889998 0.4332060218 0.3311098814 0.8382713199
-0.18824224 -0.31086862 1.2270001 0.7899534702 0.1886288077 0.5834318399
-0.015431087 0.1074241 1.3540001 -0.6543875337 -0.6180387735 0.4356661737
-0.13099928 -0.17480259 1.1357143 0.5869396329 0.2527646124 0.7691631317
-0.20767927 0.02443007 1.3935001 0.6511457562 0.02601820976 0.7585065961
-0.18117456 -0.04012591 1.3870001 0.5082244873 0.1801642627 0.8421690464
-0.1649922 -0.19485278 1.1670002 0.3910213113 0.3461870849 0.8527935147
-0.27226987 -0.026049271 1.4860001 0.885156095 0.199416995 0.4203944802
-0.16616845 -0.11519541 1.1628463 0.7497470379 -0.1079825461 0.6528546214
-0.14521584 0.044501189 1.3358126 0.4177035093 0.02580569498 0.9082168341
-0.065070294 0.022903793 1.2440001 0.4691832662 -0.7409216166 0.4805228114
-0.047031563 -0.078605585 1.1255001 -0.2182508856 -0.6048711538 0.7658311725
-0.20731962 -0.28300446 1.25125 0.8966985345 0.07025930285 0.4370301366
-0.35031599 -0.34720209 1.7760001 -0.2419953495 0.7615858316 0.6011865735
-0.29136661 -0.18653129 1.6160001 0.9111617804 0.09587932378 0.4007385075
-0.045200057 -0.13560016 1.097 -0.1577562243 -0.1127429232 0.9810209274
-0.095423929 0.11520662 1.3274 0.3884370625 -0.1871805638 0.9022638798
-0.043961149 -0.0043549291 1.1827999 -0.3464436233 -0.5932402015 0.726665616
-0.12590034 -0.25663006 1.153 0.3897265792 0.3284534812 0.8603670597
-0.18215029 -0.0012062934 1.376 0.5486876965 0.2620393932 0.793900013
-0.18930127 -0.15165018 1.1930001 0.8429866433 -0.313447237 0.4371776879
-0.018405616 -0.16177568 1.105 -0.3273645341 0.2286892831 0.916806221
-0.083189964 -0.074329495 1.123 -0.03482238203 -0.3689264059 0.9288060665
-0.22485603 -0.1854341 1.2337779 0.8702493906 -0.270716548 0.4115562439
-0.09215533 0.035519902 1.307 0.6728401184 -0.05911292508 0.7374224663
-0.22129259 -0.21702453 1.2165 0.8261591196 -0.1072971523 0.5531260371
-0.078182012 -0.14574671 1.1010001 0.528427422 -0.09052345157 0.8441385627
-0.037050951 -0.19351219 1.1154444 -0.3968177736 0.4838421345 0.7800207734
-0.076113611 0.0023475378 1.216 0.05163412914 -0.771795392 0.6337710619
-0.22539243 -0.064575329 1.4228463 0.7154980302 0.126222387 0.687117517
0.045555111 0.063947581 1.3576366 -0.4511766136 0.2857242823 0.8454592228
-0.10279443 -0.014785276 1.2046667 0.5160777569 -0.716822207 0.4688599706
-0.14907366 -0.070836417 1.2060001 0.7265140414 -0.3307588398 0.6023088098
-0.0056174854 -0.10409754 1.1308889 -0.5362499952 -0.4014525414 0.7424768209
0.015157566 0.081771083 1.3649999 -0.2252600789 -0.7330369353 0.6418058872
-0.11543033 0.054902211 1.3277497 0.369689256 -0.1194347069 0.9214473367
-0.14403872 0.014164524 1.3467504 0.3782885373 0.4933058321 0.7832924724
-0.064052865 -0.024651378 1.1556666 0.407627821 -0.7846106887 0.4671462774
-0.10264654 -0.17595288 1.1183847 0.5092109442 0.01300247386 0.8605434895
-0.060262945 0.10119626 1.2970001 0.3342998922 -0.5636395216 0.7553502917
-0.093089633 -0.11693634 1.123 0.02965983748 0.00542287156 0.9995453358
-0.065188996 -0.20258695 1.1073076 -0.07404375821 0.4394526482 0.8952088356
-0.15685056 -0.22496232 1.1730002 0.5743721128 0.0565299429 0.816640079
-0.093905754 -0.26670533 1.1631819 -0.1595014483 0.7647252083 0.6243033409
-0.033552531 -0.10216505 1.1131539 -0.2759698033 -0.4766131938 0.8346739411
-0.13315465 -0.016856546 1.2348573 0.6041663885 -0.5670235157 0.5598815084
-0.0031410966 -0.13087903 1.1943334 0.9872390032 -0.09521936625 -0.1276417673
-0.0061875582 -0.054398317 1.1662633 -0.3400413692 -0.6990796328 0.6290147305
-0.11397525 -0.22495772 1.1356845 0.5770961046 0.2469099611 0.7784571648
-0.11078174 -0.030024957 1.1810001 0.1790042818 -0.7869006991 0.5905461907
-0.25104314 -0.0050460929 1.439 0.809905827 0.02065403573 0.5861961842
-0.18361296 -0.084973924 1.2541429 0.8860476017 -0.1838273257 0.4255903959
-0.20431942 -0.044310242 1.4039999 0.4590469003 0.1456320286 0.8763944507
-0.14591578 -0.28608492 1.1756668 0.4068116248 0.4305788875 0.8056712151
-0.025471063 0.024633359 1.2335557 -0.5960655212 -0.5547834039 0.5804492235
-0.25797144 -0.037219759 1.4640001 0.8453053236 0.2203018665 0.4867503941
-0.15737118 -0.044012677 1.233143 0.6792043447 -0.5022470355 0.5351909399
-0.012189173 0.037675627 1.2640001 -0.5893979073 -0.5944774151 0.5469979048
-0.2595731 -0.076422542 1.503 0.9058901072 0.1536021382 0.3946764171
-0.18327266 -0.17558271 1.1762729 0.7507312894 -0.0941317901 0.6538667679
-0.16888019 -0.10003731 1.2270001 0.8221009374 -0.2783883512 0.4966386855
-0.23998749 -0.25532916 1.25 0.7303225994 0.6080927253 0.3112107813
-0.026564579 0.073340356 1.2950001 -0.6511310339 -0.6738253236 0.349267602
-0.035241477 -0.058402132 1.1486001 -0.2838474512 -0.6861423254 0.6698054075
-0.2054739 -0.2359283 1.2037143 0.5140163302 0.4570242763 0.725889802
-0.11642572 -0.073216572 1.1440771 0.2777594626 -0.5662872791 0.7759950757
-0.025100721 -0.021963131 1.1930001 -0.3968017995 -0.6803941727 0.6161267161
-0.24195561 -0.063339166 1.4450001 0.8485888839 0.1649625301 0.5026771426
-0.076967046 -0.22652738 1.1240001 -0.04421532527 0.5069780946 0.8608241677
-0.08493536 -0.043704089 1.1632859 0.2708622515 -0.803740263 0.5297501683
-0.24242391 -0.10592195 1.4735001 0.8974627256 0.1264409274 0.4225794375
-0.06311167 0.065365583 1.2855 0.8645701408 -0.2910308242 0.4096578062
-0.19548896 0.046026226 1.3816001 0.6967743039 0.06363918632 0.7144618034
-0.23067817 -0.1799069 1.2590001 0.8757778406 -0.3476482034 0.3348938227
-0.17892942 -0.13779622 1.1730001 0.8532173038 -0.1357298195 0.5035847425
-0.12431403 -0.12439784 1.1158332 0.2263097167 0.1018990204 0.9687107205
-0.16129878 0.10007589 1.3430001 0.5475622416 -0.07165110856 0.833691597
-0.24179196 0.035743162 1.439 0.8300381303 -0.1350396872 0.5411109328
-0.22517294 0.034641482 1.4112501 0.7682113647 -0.07497531176 0.6357908249
-0.0047304933 0.083966255 1.3490001 -0.7137239575 -0.6144481301 0.3362314105
-0.0018024266 -0.095866419 1.2333335 0.5195623636 -0.6960369349 0.495567888
-0.11671991 -0.1950382 1.13 0.5684728026 0.1916802078 0.8000608683
-0.1442619 -0.18491444 1.1563997 0.537945807 0.3707654476 0.7570648789
-0.14073217 0.15019317 1.3490001 0.2497669756 -0.2906732559 0.9236479402
-0.20276599 -0.26482815 1.2346667 0.6534727812 0.5460396409 0.5242270827
-0.14541252 -0.15441541 1.1348423 0.496604532 0.2699130774 0.8249429464
-0.17830084 0.087355457 1.3650001 0.7544901967 -0.1162021682 0.6459424496
-0.20711251 -0.1413625 1.25 0.7743579149 -0.5255631208 0.3523538113
-0.052511454 0.042224649 1.2350001 0.5385673642 -0.640557766 0.5473855138
0.0055909418 -0.071561866 1.2754999 0.5085228086 -0.6978901029 0.504335165
-0.17548479 -0.27514061 1.1944119 0.7476446629 0.09159109741 0.6577526331
-0.083209649 -0.18484493 1.1064999 0.4460098445 0.2002056539 0.8723490834
-0.19182387 -0.28800297 1.2190001 0.7951647043 0.1139658466 0.5955878496
-0.13274246 -0.095772006 1.1369094 0.6100315452 -0.3751059771 0.6979663372
-0.037415039 0.094401881 1.3132501 -0.7604597807 -0.5502688885 0.3448261619
-0.10537369 0.13581364 1.3355001 0.3674987853 -0.2618055344 0.8924138546
-0.19410919 -0.1262774 1.2346667 0.7551115155 -0.5431213379 0.3671863079
-0.21116272 -0.094737865 1.302 0.8392379284 -0.382547766 0.3864412606
-0.073577598 0.11409252 1.3170002 0.3479818106 -0.4141193032 0.8410789967
-0.16681302 0.013881139 1.3649999 0.6103405952 0.2796800733 0.7411230803
-0.12126842 0.1189137 1.3430001 0.2074799091 -0.1764543951 0.9621933103
-0.23402317 -0.014896389 1.4251539 0.7291705012 0.1192789301 0.6738567352
-0.22032036 0.00492336 1.404 0.6449725628 0.1563786715 0.7480348349
-0.17830084 0.063422449 1.3650001 0.7044012547 0.03992981091 0.7086779475
-0.025268426 0.096869819 1.3345001 -0.5589152575 -0.6838021874 0.4690717459
-0.087129273 0.02043773 1.2270001 0.0985956043 -0.7508772016 0.6530408859
-0.17694962 -0.24709959 1.1943334 0.6531365514 0.3577320278 0.6674132347
-0.035357717 0.0050123413 1.204 -0.6555868983 -0.5468935966 0.5206853151
-0.20801196 0.077542916 1.404 0.7942683697 -0.1501888186 0.5887113214
-0.1377515 0.068287075 1.3430001 0.4176594615 -0.1478195637 0.8964987397
-0.095305309 0.085606076 1.3248237 0.3899627924 -0.03666703403 0.9201002717
-0.20784861 -0.12403634 1.2746667 0.7585816383 -0.4826772809 0.4376946092
-0.030875906 0.065843813 1.273 -0.6242963076 -0.6499662995 0.4333565831
-0.061809383 0.00419222 1.1950001 0.6108540893 -0.618631959 0.4941172004
-0.22335178 -0.034265492 1.4127778 0.6486746669 0.1189052835 0.7517198324
-0.16828406 -0.021792181 1.381 0.5157573819 0.242711693 0.8216357827
-0.27210593 -0.071042433 1.529 0.9206944108 0.2153695375 0.3254808187
-0.24791959 -0.08589448 1.4844999 0.8712340593 0.1198881641 0.4760021269
-0.025258521 0.12348843 1.3720002 -0.5593767166 -0.7039797902 0.4376187325
-0.056193057 0.055382695 1.2658181 0.6924048066 -0.4404638708 0.5714606047
-0.21243738 -0.17619948 1.2156668 0.824411273 -0.2879569829 0.487264663
-0.14149532 -0.23683983 1.1570001 0.6034926176 0.03159271926 0.7967424393
-0.18523352 0.02219574 1.381 0.5872846246 0.1508974135 0.7951897979
-0.26498741 -0.050908908 1.4890001 0.8651937246 0.3768168986 0.3308304846
-0.20533636 -0.21476142 1.1950003 0.6794230938 0.1134694889 0.7249199748
-0.090785846 -0.058861151 1.138 0.3241417706 -0.732260406 0.5989381075
-0.057498373 0.13358603 1.325 -0.399024725 -0.7031092048 0.5885717869
-0.18306127 -0.20478459 1.1762002 0.4130977392 0.3031091094 0.8587636948
