# .PCD v0.7 - Point Cloud Data file format
VERSION 0.7
FIELDS x y z normal_x normal_y normal_z
SIZE 4 4 4 4 4 4
TYPE F F F F F F
COUNT 1 1 1 1 1 1
WIDTH 206
HEIGHT 1
VIEWPOINT 0 0 0 1 0 0 0
POINTS 206
DATA ascii
-0.16099545 0.10733205 1.155 -0.6272065043 -0.6846693158 0.3712679446
-0.23561993 -0.28736082 0.90800005 0.4627030492 0.5070195198 0.727211833
-0.35223854 -0.047671378 1.0070001 0.6790689826 -0.5619345903 0.4723291993
-0.044975631 -0.12666607 1.0470001 0.5969856381 -0.5419912338 0.5914842486
-0.35749766 0.048602398 1.2320001 0.5554825664 -0.8047004938 0.2095142007
-0.013835553 -0.0159641 1.2140001 -0.3143700063 0.9113411307 0.2657608092
-0.18535146 -0.094193958 0.91121614 0.116268225 -0.3266870677 0.9379537702
-0.36243126 -0.21153705 0.99300003 0.7199551463 -0.1556030065 0.6763522029
-0.21749681 0.043662384 1.0163335 -0.3396832347 -0.7989137769 0.4963386357
-0.10720932 -0.2202362 0.94800007 -0.415166229 0.4083688855 0.8129402399
-0.1026201 0.074611053 1.2863334 0.6131698489 -0.6506692767 0.4479421973
-0.10386395 -0.0086553302 1.097 -0.1793091297 -0.8543992043 0.4876989424
-0.31871232 0.038029276 1.1010001 0.5578904152 -0.6888800859 0.4628201723
-0.29476446 -0.12556095 0.94044161 0.1784329563 0.3109015226 0.9335426688
-0.11879847 -0.054607693 0.99328578 -0.7202122211 -0.4777929187 0.5029993057
-0.2655541 0.098720208 1.1954 0.440571934 -0.8465499878 0.2987464666
-0.2590287 -0.018090893 0.93800002 -0.1367114335 -0.1640929133 0.9769255519
-0.21527123 -0.19212371 0.93690914 0.1160858423 0.4949609339 0.8611258864
-0.078371368 -0.080406986 1.161 -0.9377358556 0.124886021 0.3241218626
-0.063044213 0.063991807 1.1824546 -0.275280714 -0.672303021 0.687189281
-0.2348679 0.085742183 1.1046153 0.1371646374 -0.8954478502 0.4235079885
-0.14075409 -0.14477624 0.98300004 0.2576053739 -0.6072755456 0.7515689731
-0.29197648 -0.26303241 0.97100002 0.308218807 -0.1300756782 0.9423807263
-0.3832666 -0.12544496 1.0156667 0.7543109059 -0.2103930861 0.6218921542
-0.29436845 0.013779919 1.0268461 0.5254394412 -0.6828718185 0.5075426102
-0.16533749 0.044002794 1.0863999 -0.7460879087 -0.3185643554 0.5846961141
-0.16490026 -0.24495748 0.89663172 -0.2970291674 0.04257356375 0.9539188743
-0.18420137 -0.012044711 0.97150004 -0.546849668 -0.6196600795 0.5630069375
-0.038279522 -0.015796281 1.1362858 -0.423024565 -0.6539565325 0.6272089481
-0.064743586 -0.17906559 0.99800009 0.4105040729 -0.8428783417 0.3479116857
-0.22586502 -0.2939634 0.98423088 0.08207032084 0.4205706418 0.9035401344
-0.10399754 -0.072011948 1.0618184 -0.5781876445 -0.6838725805 0.4449914396
-0.15530919 -0.01217245 1.0435385 -0.5353778005 -0.7836036086 0.3151760995
-0.30515838 -0.19514443 0.9469676 0.3514159322 0.144690752 0.9249710441
-0.12103347 0.047013003 1.141 -0.7507258654 -0.2088879347 0.6267188191
-0.039429836 -0.07020434 1.097 0.3964532316 -0.6720703244 0.6254168749
-0.16264786 -0.15576833 0.92063159 -0.4362098277 0.08761172742 0.8955697417
-0.31374934 -0.05546188 0.9550001 0.4671948254 0.004162076395 0.8841446042
-0.35198331 -0.15282066 0.96614295 0.4499982595 0.3331264555 0.8285700679
-0.23487219 -0.13494824 0.91705704 0.4316116571 -0.1342935711 0.8920070529
-0.35217541 -0.01038587 1.077 0.6167359352 -0.6895773411 0.3796311915
-0.24513805 -0.075253487 0.92057478 0.1739735156 0.02778830938 0.9843581915
-0.19252564 -0.25137627 0.95900005 0.08104164898 0.3730270863 0.9242743254
-0.22213243 0.11123526 1.1570001 0.3088897765 -0.8489663005 0.4287695587
-0.15538216 -0.056103662 0.94447625 -0.5029658079 -0.6730573773 0.5422353148
-0.066386461 -0.038988873 1.202 -0.7925181985 0.4105601311 0.4509493411
-0.26161295 0.054098926 1.0530001 0.5122864842 -0.7775948644 0.3645666242
-0.28432035 0.074194245 1.1317779 0.4678223729 -0.8082028031 0.3577016592
-0.35456654 -0.095131062 0.97476006 0.5242687464 0.2408722043 0.816775918
-0.039799791 0.091431953 1.2270001 0.6965731382 -0.6268565655 0.3490511775
-0.11674395 0.082346179 1.189 -0.6838821173 -0.6250994205 0.3762392402
-0.071070053 -0.11620699 1.0955 0.7425996661 -0.449477762 0.4965032637
-0.084334165 0.056223556 1.2333335 -0.005896140821 -0.3535316586 0.9354040027
-0.25418329 0.018107312 0.9834547 0.4506720304 -0.7606660128 0.4672064781
-0.24546571 -0.23552988 0.95899975 0.06684056669 0.2125816196 0.9748545289
-0.10963616 -0.10339209 1.0167501 -0.3476928473 -0.7919516563 0.5019185543
-0.096684761 -0.16662754 0.95693755 -0.3554317951 -0.4555135369 0.8161958456
-0.07453946 0.021153091 1.149 -0.1657691449 -0.9044288397 0.3931018412
-0.18351606 0.087565765 1.1123002 -0.2868998945 -0.7524496913 0.5928810239
-0.20441523 -0.044933457 0.9319303 -0.3149003386 -0.2684313357 0.9103748798
-0.08560469 -0.16422755 1.0428948 0.4743274748 -0.7098302245 0.5207250118
-0.14128174 -0.10578292 0.94320005 -0.9011699557 0.05126449838 0.4304237962
-0.093495622 -0.054925185 1.1168001 -0.9140626788 0.01948555931 0.4051045477
-0.21317378 0.069323286 1.0600001 -0.1759274453 -0.8327780962 0.5249096751
-0.30381384 -0.017038392 0.98614293 0.5203259587 -0.6961116791 0.4946608841
-0.10580041 -0.025435856 1.045143 -0.5948473811 -0.6324997544 0.4960852861
-0.13922694 -0.19878066 0.91800004 -0.5536786914 -0.4702890217 0.6872177124
-0.26514617 -0.17476593 0.93102443 0.2104194611 0.2879606187 0.9342389107
-0.17926607 0.03002934 1.0380001 -0.7115874887 -0.5674757361 0.4142638743
-0.32398969 -0.22874863 0.97000003 0.3348484933 0.5621671677 0.7562040687
-0.10042831 0.038307704 1.1810001 -0.7569309473 -0.5607222915 0.3356277943
-0.18641752 -0.28296727 0.90188885 -0.07808753103 0.4682093859 0.8801603913
-0.14284429 0.0057609859 1.0829333 -0.6085879803 -0.5562359095 0.5658818483
-0.33305269 -0.014559682 1.0380001 0.5861498713 -0.6861073971 0.4309118092
-0.10215228 -0.19363484 1.0132143 0.5204715133 -0.789690733 0.3248044252
-0.14588173 0.11296664 1.1947143 -0.5864166021 -0.7426338196 0.3234356046
-0.27608073 0.057521164 1.0935 0.5050172806 -0.7664747834 0.3968299031
-0.038943287 0.031769522 1.169 -0.02934417874 -0.5351140499 0.8442700505
-0.22480313 -0.0051856325 0.96351451 -0.2713919878 -0.5608397126 0.7821797729
-0.17490952 -0.21328558 0.93393755 0.4855105877 0.4719278216 0.735910058
-0.28678629 -0.084542915 0.94244438 0.5801842213 -0.3650223613 0.7281105518
-0.15371086 -0.023502305 1.0035714 -0.4400380254 -0.8435693979 0.3078266382
-0.068721898 0.02854602 1.2060001 -0.04668335244 -0.9448089004 0.3242788315
-0.256944 -0.27276608 0.94000018 0.2847922444 -0.8598934412 0.4236468971
-0.073029846 -0.02130037 1.1570001 -0.6869395971 0.701484859 0.1898237616
-0.141899 -0.24058713 0.95400006 0.002397586824 0.5382836461 0.8427603245
-0.026154649 -0.016267251 1.1746 -0.1346292943 0.9447527528 0.2988598347
-0.19416428 -0.13488591 0.90781862 -0.003011557739 0.07897710055 0.9968718886
-0.31780919 0.013939 1.0600001 0.5709750652 -0.7488108277 0.3365558088
-0.25746197 -0.11348575 0.94000024 0.1484905481 0.2198966295 0.9641556144
-0.31106764 -0.15889671 0.95900005 0.5279999971 0.002626790898 0.849240303
-0.14757544 0.070579559 1.126 -0.6143888831 -0.5675324202 0.5481178761
-0.10161049 -0.091841355 1.1145 -0.9430004358 0.01177049708 0.3325832188
-0.32259771 -0.10633097 0.95721436 0.568371892 -0.3858766854 0.7266722918
-0.38727626 -0.16107172 1.0040001 0.8943313956 0.134815976 0.426609844
-0.13350692 -0.17217225 0.9512729 -0.2846474648 -0.6539050937 0.7009878755
-0.18584436 0.013732105 1.004706 -0.5426976681 -0.7003801465 0.4636236727
-0.26201639 -0.28408995 0.98100001 -0.1704009473 0.4575299919 0.8727140427
-0.26444277 -0.054960344 0.94625908 0.1225143448 -0.2139037251 0.9691416025
-0.1071725 -0.12946437 0.97799999 -0.007738464046 -0.6109215021 0.7916533351
-0.12387107 0.018532207 1.1126001 -0.6980937719 -0.4683896601 0.5415498018
-0.28502393 -0.2249326 0.95635992 0.07276102901 0.4436519444 0.8932406306
-0.054401707 -0.15611288 1.0251765 0.4693489373 -0.6469776034 0.6009421945
-0.33901286 -0.19558434 0.97000009 0.7075329423 -0.1124557853 0.6976753473
-0.25454205 0.036731206 1.0147142 0.4510322511 -0.7921586633 0.4111624956
-0.3435201 0.030600926 1.126 0.6071431637 -0.6726388931 0.4230060875
-0.32989842 0.054099098 1.21 0.5512215495 -0.8097678423 0.2010741234
-0.13071977 -0.075058445 0.96200007 -0.8697329164 -0.1665963382 0.4645539224
-0.077713199 0.004448948 1.1177694 -0.625289917 -0.4801242352 0.6152180433
-0.046254493 -0.094384074 1.0718888 0.6762688756 -0.4521579444 0.581561327
-0.35570556 -0.17506675 0.99350011 0.5114139915 0.4333307743 0.7420782447
-0.12111501 -0.069595933 1.031 -0.9883491397 0.0700910911 0.135104388
-0.19589126 -0.16797522 0.92030001 0.1372315288 0.4748956859 0.869276464
-0.211978 -0.081530005 0.93000007 0.1540319622 -0.2684767544 0.9508913755
-0.13427684 0.085126966 1.1559999 -0.5857445598 -0.6577732563 0.4735373855
-0.29129702 0.035480455 1.0650001 0.4905375242 -0.8002623916 0.3448956907
-0.22611678 -0.26345342 0.96512496 0.00371369021 0.3741303384 0.9273687005
-0.051929742 -0.045611698 1.1176667 -0.4491943717 -0.4655211866 0.7625709176
-0.21786073 0.023586914 0.98833328 -0.4142530262 -0.6935966611 0.5893369913
-0.36154872 -0.12745243 0.98900002 0.764942944 -0.3278855383 0.5543945432
-0.25479543 -0.20498623 0.94695997 -0.05656579882 0.4831279218 0.8737206459
-0.19033048 0.12315501 1.161 -0.05534133688 -0.8674317002 0.4944689572
-0.28846365 -0.031680979 0.95100003 0.5044102669 -0.4829614758 0.7157642841
-0.15854166 -0.11991222 0.91800004 -0.5644922853 0.02269395441 0.8251263499
-0.14494702 -0.043703295 0.97395241 -0.4891421199 -0.7383463383 0.4643109739
-0.34037986 -0.059159219 0.97800004 0.6787976623 -0.5445770621 0.4926149845
-0.072620437 -0.13685906 1.0620002 0.58559376 -0.602961719 0.5417722464
-0.085363321 -0.19181626 0.97446162 -0.9427921772 -0.04442945868 0.330407232
-0.1321622 -0.1150618 0.99650002 0.04958309606 -0.6509343386 0.7575130463
-0.24448442 0.071453974 1.074 0.1788294613 -0.8760585189 0.4478185475
-0.21553004 -0.22555801 0.9529168 0.061771065 0.3197070062 0.9455007911
-0.20081277 0.10538235 1.1340001 0.1178040057 -0.8818528652 0.456571728
-0.23166355 0.1225878 1.1850001 0.4594302773 -0.8038349748 0.3778533638
-0.15343764 -0.085029297 0.9227429 -0.6223997474 -0.2104118913 0.7538868785
-0.10526384 0.064182371 1.1637273 -0.7536690831 -0.4949742556 0.4324157834
-0.27468136 -0.0034669831 0.97366673 0.4981860518 -0.7359127998 0.458522588
-0.13905039 -0.14268784 0.94300002 -0.9303505421 0.06626754254 0.3606334627
-0.19548316 0.073916934 1.0850999 -0.3642219007 -0.7408968806 0.5642820001
-0.16666423 0.014755292 1.0652668 -0.7226854563 -0.519207418 0.4562338889
-0.1637824 -0.21453798 0.90196806 -0.2011732161 -0.3753417432 0.9047916532
-0.18364024 -0.068197846 0.92733341 0.1395238638 -0.5529572368 0.8214446902
-0.12598038 -0.026391681 1.0161581 -0.4279718697 -0.7667434812 0.4784814417
-0.27818123 0.0096529769 1.001 0.4943668842 -0.7928030491 0.3564612865
-0.23755752 -0.041810367 0.94042861 0.4040438831 -0.4685748816 0.7856119275
-0.23537105 -0.1649847 0.92215377 0.1500345916 0.4244008958 0.892957747
-0.084596507 -0.025919599 1.1155834 -0.8046653271 0.4799022675 0.3495819271
-0.18567765 0.052118361 1.0654 -0.5048881769 -0.6808968782 0.5305349827
-0.28521892 -0.15431294 0.94092339 0.4768818617 -0.1980990916 0.8563529849
-0.082235709 -0.048138641 1.1440001 -0.9535989761 0.001666737138 0.3010751307
-0.34250054 0.013735321 1.0923333 0.605452776 -0.653008461 0.454980135
-0.1389955 -0.23271818 0.90600002 -0.43329072 -0.1194103956 0.8933086395
-0.1004397 0.054977521 1.2060001 -0.8785230517 -0.3673182726 0.3054088354
-0.20306057 -0.018837813 0.94800001 -0.1890135854 -0.7387975454 0.6468786597
-0.17464492 -0.036858577 0.95666647 -0.3838640153 -0.6849879622 0.6192252636
-0.073562853 -0.055343091 1.1763334 -0.9436018467 -0.1199121773 0.3086043894
-0.32875961 -0.1347831 0.95100009 0.4253657162 0.1282173097 0.8958930373
-0.13622044 0.045407917 1.1145264 -0.7552127242 -0.3511469364 0.553488493
-0.22153607 -0.10855523 0.91725004 0.4066856802 -0.3408971727 0.8475823402
-0.046649102 0.0072701965 1.1544545 -0.07467938215 -0.3249840438 0.9427663088
-0.045934703 0.067178972 1.2115 0.7043165565 -0.6001081467 0.3792208135
-0.1653052 -0.18488339 0.92181486 0.2392279059 -0.08804221451 0.9669635892
-0.1040165 0.00099063327 1.13 -0.009523672983 -0.8647911549 0.5020413995
-0.36399361 -0.076636322 0.99500006 0.7109950781 -0.3712979853 0.5971798897
-0.23560004 0.052971866 1.0369092 0.1225609183 -0.8750073314 0.4683385789
-0.10425512 0.027127922 1.1545999 -0.6797696948 -0.585280776 0.4419949651
-0.06273865 -0.085903689 1.1010001 0.7575825453 -0.4536498785 0.4693298042
-0.11743931 -0.19627936 0.93679994 -0.4416586161 -0.08934263885 0.8927236795
-0.30687851 -0.083576478 0.96299994 0.4209792912 -0.1276354641 0.8980454206
-0.16806665 0.071068734 1.0955 -0.5615904331 -0.5845072865 0.585634172
-0.20209897 0.047422655 1.0431429 -0.5135275722 -0.7130824327 0.4772869945
-0.19094238 -0.2517322 0.88900006 -0.1637380421 0.1647335738 0.9726524353
-0.37537575 -0.10391662 0.995 0.6686707139 0.2915407419 0.684020102
-0.25137627 0.0016814467 0.95900005 0.1237209961 -0.6626196504 0.738666594
-0.27240029 0.033371191 1.0357502 0.5091773868 -0.7511438131 0.4201444983
-0.052231509 -0.016260121 1.1836667 -0.3047584593 0.885597229 0.3504850566
-0.25845009 -0.1410469 0.93000007 0.5061850548 -0.187774986 0.8417346478
-0.1690675 0.0014967622 1.024 -0.8421056271 -0.5029601455 0.1946515292
-0.26503116 -0.25359052 0.9652859 0.0530485101 0.1711377352 0.983817935
-0.13547237 -0.1250418 0.96335298 -0.878831327 0.07663352787 0.4709382057
-0.3332231 -0.0759551 0.95839989 0.2211995423 0.1685861051 0.9605464339
-0.37276742 -0.18682642 1.01 0.5732061863 0.144544214 0.8065616488
-0.10392393 -0.057182513 1.0836 -0.9656810164 0.1415737122 0.2177545279
-0.087530956 -0.074573472 1.1372 -0.9267847538 0.1864706725 0.3260348737
-0.18626522 -0.22608362 0.95306921 0.2258604765 0.3841761649 0.8952070475
-0.21019486 -0.27474907 0.89800006 0.1850534528 0.4200119376 0.8884510398
-0.12228798 -0.14691211 0.96563643 0.1676810831 -0.5468754172 0.8202502131
-0.094175264 -0.014124634 1.0742501 -0.3586690724 -0.8937243223 0.2694686651
-0.22454357 0.09774249 1.13 0.1753532588 -0.9151136875 0.3630676866
-0.1310266 -0.21837766 0.94000006 -0.4170998633 0.551148653 0.7226775289
-0.37333989 -0.16215967 0.98100007 0.6066797376 0.3415282667 0.7178426981
-0.15834354 0.091125116 1.136 -0.6328082085 -0.6043454409 0.4840664566
-0.11028313 -0.044831198 1.0227501 -0.8832521439 -0.2316558212 0.4076779187
-0.028626673 -0.041459322 1.126 -0.4887499511 -0.4504626989 0.7471324205
-0.26497263 -0.094374001 0.92584831 0.1365336478 0.1294874996 0.9821361899
-0.22476326 -0.055186562 0.92205554 -0.04153031856 -0.255589515 0.9658929706
-0.10870667 -0.10870667 0.99200004 -0.07897436619 -0.704806447 0.7049899697
-0.07918141 0.024679922 1.1730001 -0.1425153315 -0.9445081353 0.2959624231
-0.31181979 -0.0036048533 1.028 0.5799457431 -0.6294781566 0.5171268582
-0.21138099 0.091694951 1.1010001 0.09852175415 -0.8672246337 0.4880726337
-0.12930132 -0.1014128 0.96400005 -0.9244712591 0.1187126487 0.3622985184
-0.13106737 -0.012830455 1.0455 -0.173713401 -0.9612752795 0.2139474452
-0.3087436 -0.24854289 0.98100007 0.3346958756 0.5300574303 0.7791134715
-0.070833497 -0.01556434 1.1326667 -0.8903748393 0.1634411514 0.4248760045
-0.20587282 0.0019473955 0.97663635 -0.2373186648 -0.7387729287 0.6307887435
-0.28924739 -0.17799839 0.94000006 0.3781708479 0.04804722592 0.9244881272
-0.30872107 0.028753499 1.0813333 0.5121904612 -0.6802760959 0.5242950916
